ply
format ascii 1.0
comment Author: CloudCompare (TELECOM PARISTECH/EDF R&D)
obj_info Generated by CloudCompare!
element vertex 2194
property float x
property float y
property float z
end_header
24.359 4.8603 668.24 
24.357 4.9506 668.17 
24.354 5.0417 668.11 
24.352 5.1324 668.05 
24.35 5.2239 667.99 
24.348 5.314 667.92 
24.345 5.4045 667.85 
24.343 5.4947 667.8 
24.341 5.5854 667.74 
24.34 5.6758 667.7 
24.338 5.7666 667.65 
24.336 5.8584 667.59 
24.334 5.9488 667.55 
24.332 6.0384 667.49 
24.33 6.1291 667.43 
24.328 6.2193 667.37 
24.327 6.3107 667.34 
24.325 6.4009 667.3 
24.323 6.4915 667.23 
24.321 6.5818 667.18 
24.319 6.6725 667.12 
24.317 6.7619 667.07 
24.315 6.8522 667.03 
24.313 6.943 666.98 
24.312 7.0341 666.93 
24.31 7.1248 666.88 
24.309 7.2152 666.85 
24.307 7.306 666.8 
24.305 7.3978 666.76 
24.303 7.487 666.7 
24.302 7.5765 666.66 
24.3 7.6663 666.62 
24.299 7.7569 666.57 
24.297 7.8487 666.54 
24.296 7.9393 666.51 
24.295 8.0297 666.48 
24.293 8.1199 666.42 
24.292 8.2106 666.39 
24.29 8.302 666.35 
24.29 8.3924 666.34 
24.288 8.4813 666.28 
24.287 8.5727 666.26 
24.285 8.6627 666.21 
24.284 8.7533 666.16 
24.282 8.8428 666.11 
24.281 8.934 666.09 
24.279 9.0247 666.04 
24.278 9.1143 666.01 
24.277 9.2046 665.98 
24.276 9.2963 665.96 
24.275 9.3869 665.93 
24.275 9.4765 665.91 
24.273 9.5673 665.88 
24.272 9.6574 665.83 
24.27 9.7479 665.8 
24.269 9.8376 665.77 
24.268 9.9281 665.74 
24.267 10.019 665.72 
24.266 10.109 665.69 
24.265 10.199 665.65 
24.264 10.289 665.63 
24.263 10.38 665.6 
24.262 10.471 665.58 
24.262 10.561 665.56 
24.261 10.651 665.53 
24.259 10.742 665.49 
24.259 10.832 665.47 
24.258 10.923 665.45 
24.257 11.013 665.43 
24.257 11.104 665.42 
24.256 11.194 665.4 
24.255 11.285 665.38 
24.254 11.375 665.34 
24.253 11.465 665.33 
24.253 11.556 665.32 
24.253 11.647 665.31 
24.251 11.737 665.27 
24.25 11.828 665.25 
24.249 11.918 665.21 
24.248 12.008 665.19 
24.248 12.099 665.18 
24.248 12.189 665.18 
24.248 12.28 665.17 
24.247 12.37 665.16 
24.246 12.461 665.12 
24.246 12.551 665.12 
24.245 12.642 665.09 
24.245 12.732 665.09 
24.244 12.822 665.07 
24.244 12.912 665.06 
24.243 13.004 665.05 
24.243 13.095 665.03 
24.243 13.186 665.04 
24.243 13.276 665.04 
24.242 13.366 665.02 
24.241 13.457 665 
24.241 13.547 664.98 
24.24 13.637 664.97 
24.24 13.727 664.97 
24.24 13.817 664.97 
24.24 13.908 664.96 
24.24 13.999 664.96 
24.239 14.089 664.95 
24.239 14.179 664.94 
24.239 14.27 664.93 
24.239 14.361 664.92 
24.238 14.452 664.9 
24.238 14.544 664.9 
24.238 14.634 664.9 
24.237 14.723 664.89 
24.237 14.814 664.88 
24.237 14.906 664.88 
24.237 14.997 664.87 
24.236 15.087 664.86 
24.236 15.176 664.86 
24.237 15.267 664.88 
24.237 15.358 664.88 
24.237 15.45 664.88 
24.237 15.54 664.88 
24.236 15.63 664.86 
24.237 15.722 664.87 
24.237 15.813 664.87 
24.236 15.903 664.87 
24.237 15.992 664.88 
24.237 16.082 664.88 
24.237 16.173 664.88 
24.237 16.265 664.87 
24.237 16.357 664.89 
24.237 16.446 664.88 
24.237 16.536 664.89 
24.237 16.625 664.89 
24.238 16.717 664.9 
24.238 16.808 664.9 
24.238 16.899 664.91 
24.238 16.989 664.91 
24.238 17.08 664.91 
24.238 17.171 664.9 
24.238 17.264 664.91 
24.239 17.355 664.93 
24.24 17.446 664.95 
24.24 17.536 664.96 
24.239 17.626 664.94 
24.239 17.716 664.95 
24.24 17.807 664.96 
24.24 17.899 664.98 
24.241 17.99 664.98 
24.241 18.081 665 
24.242 18.173 665.02 
24.242 18.263 665.02 
24.242 18.354 665.03 
24.243 18.446 665.04 
24.243 18.537 665.05 
24.244 18.629 665.06 
24.244 18.72 665.07 
24.245 18.81 665.1 
24.246 18.901 665.12 
24.246 18.993 665.13 
24.247 19.085 665.16 
24.248 19.176 665.18 
24.248 19.267 665.19 
24.249 19.358 665.2 
24.249 19.449 665.21 
24.25 19.541 665.23 
24.251 19.632 665.26 
24.251 19.723 665.28 
24.252 19.814 665.29 
24.252 19.906 665.3 
24.254 19.999 665.33 
24.254 20.09 665.36 
24.255 20.181 665.38 
24.256 20.272 665.4 
24.256 20.363 665.41 
24.258 20.455 665.45 
24.259 20.546 665.48 
24.26 20.637 665.5 
24.261 20.73 665.54 
24.262 20.821 665.55 
24.262 20.913 665.58 
24.263 21.004 665.58 
24.264 21.095 665.61 
24.265 21.187 665.64 
24.266 21.279 665.67 
24.267 21.371 665.71 
24.268 21.462 665.73 
24.269 21.554 665.76 
24.27 21.645 665.78 
24.271 21.737 665.81 
24.272 21.829 665.85 
24.274 21.923 665.89 
24.276 22.015 665.94 
24.276 22.105 665.96 
24.278 22.197 665.99 
24.278 22.288 666.01 
24.279 22.381 666.04 
24.281 22.472 666.08 
24.282 22.566 666.12 
24.283 22.658 666.15 
24.285 22.75 666.19 
24.286 22.842 666.23 
24.287 22.933 666.24 
24.288 23.025 666.28 
24.29 23.119 666.33 
24.292 23.211 666.38 
24.293 23.302 666.4 
24.294 23.394 666.45 
24.296 23.486 666.5 
24.297 23.579 666.53 
24.299 23.673 666.58 
24.301 23.765 666.62 
24.302 23.857 666.66 
24.304 23.95 666.71 
24.305 24.042 666.75 
24.307 24.135 666.81 
24.309 24.227 666.86 
24.31 24.319 666.89 
24.311 24.412 666.92 
24.313 24.505 666.97 
24.316 24.598 667.04 
24.318 24.69 667.09 
24.319 24.783 667.13 
24.321 24.876 667.17 
24.323 24.969 667.24 
24.326 25.063 667.31 
24.327 25.156 667.35 
24.329 25.249 667.4 
24.331 25.342 667.45 
24.333 25.435 667.5 
24.335 25.528 667.56 
24.337 25.621 667.62 
24.339 25.715 667.68 
24.341 25.808 667.73 
24.343 25.901 667.78 
24.345 25.994 667.84 
24.347 26.087 667.89 
24.349 26.181 667.95 
24.351 26.274 668.02 
24.354 26.367 668.08 
24.357 26.462 668.17 
24.36 26.557 668.24 
24.362 26.651 668.3 
24.364 26.744 668.35 
24.366 26.837 668.42 
24.369 26.932 668.5 
24.372 27.026 668.57 
24.374 27.119 668.63 
24.377 27.213 668.71 
24.379 27.307 668.78 
24.383 27.403 668.87 
24.385 27.497 668.93 
24.387 27.591 669 
24.39 27.685 669.06 
24.392 27.78 669.14 
24.395 27.874 669.22 
24.398 27.968 669.3 
24.402 28.063 669.39 
24.404 28.158 669.47 
24.407 28.251 669.54 
24.411 28.346 669.64 
24.414 28.441 669.73 
24.417 28.537 669.81 
24.42 28.632 669.89 
24.423 28.727 669.97 
24.426 28.822 670.05 
24.43 28.918 670.16 
24.433 29.014 670.26 
24.437 29.111 670.37 
24.441 29.206 670.46 
24.443 29.301 670.54 
24.447 29.397 670.63 
24.45 29.492 670.72 
24.454 29.588 670.82 
24.458 29.684 670.93 
24.462 29.781 671.04 
24.466 29.877 671.15 
24.469 29.973 671.25 
24.473 30.068 671.36 
24.477 30.164 671.46 
24.481 30.26 671.58 
24.485 30.358 671.69 
24.49 30.456 671.81 
24.494 30.552 671.94 
24.499 30.65 672.06 
24.503 30.747 672.18 
24.508 30.846 672.32 
24.513 30.943 672.44 
24.517 31.04 672.55 
24.522 31.137 672.68 
24.526 31.234 672.81 
24.532 31.333 672.96 
24.537 31.432 673.11 
24.543 31.532 673.27 
24.549 31.631 673.43 
24.554 31.729 673.57 
24.56 31.828 673.72 
24.566 31.927 673.89 
24.571 32.026 674.04 
24.577 32.126 674.2 
24.584 32.227 674.39 
24.591 32.328 674.58 
24.598 32.428 674.78 
24.604 32.528 674.93 
24.61 32.628 675.1 
24.617 32.731 675.3 
24.625 32.834 675.53 
24.633 32.936 675.74 
24.642 33.04 675.98 
24.65 33.143 676.21 
24.659 33.247 676.45 
24.802 -2.4657 677.85 
24.794 -2.3716 677.64 
24.786 -2.282 677.41 
24.777 -2.1876 677.17 
24.77 -2.0924 676.97 
24.762 -2 676.75 
24.755 -1.9063 676.57 
24.749 -1.8153 676.41 
24.742 -1.7244 676.21 
24.735 -1.6318 676.02 
24.726 -1.5398 675.78 
24.72 -1.4456 675.6 
24.714 -1.3521 675.44 
24.707 -1.26 675.26 
24.701 -1.1674 675.09 
24.695 -1.0765 674.91 
24.688 -0.98302 674.75 
24.683 -0.8911 674.59 
24.676 -0.79705 674.4 
24.67 -0.70611 674.25 
24.665 -0.61488 674.1 
24.66 -0.52322 673.98 
24.653 -0.42923 673.79 
24.648 -0.33691 673.64 
24.643 -0.24631 673.49 
24.638 -0.15413 673.36 
24.632 -0.061055 673.21 
24.628 0.031113 673.09 
24.624 0.12122 672.97 
24.619 0.21176 672.84 
24.614 0.3036 672.71 
24.609 0.39599 672.58 
24.605 0.4889 672.46 
24.6 0.58042 672.32 
24.596 0.66979 672.22 
24.592 0.76245 672.1 
24.588 0.85397 671.99 
24.583 0.94541 671.87 
24.579 1.0372 671.76 
24.575 1.1289 671.64 
24.571 1.2197 671.55 
24.567 1.3095 671.44 
24.564 1.4028 671.34 
24.56 1.4935 671.23 
24.556 1.5865 671.12 
24.552 1.6763 671.02 
24.549 1.7676 670.94 
24.545 1.8591 670.83 
24.542 1.9505 670.73 
24.538 2.0423 670.62 
24.534 2.1335 670.53 
24.531 2.2242 670.44 
24.528 2.3146 670.35 
24.524 2.4057 670.26 
24.521 2.4964 670.16 
24.517 2.5884 670.07 
24.515 2.6798 670 
24.511 2.7705 669.9 
24.508 2.8619 669.83 
24.505 2.9525 669.74 
24.502 3.0432 669.66 
24.5 3.1329 669.6 
24.497 3.2252 669.51 
24.493 3.3157 669.41 
24.49 3.4065 669.33 
24.488 3.4972 669.28 
24.485 3.5887 669.19 
24.483 3.6801 669.12 
24.48 3.7706 669.04 
24.477 3.8623 668.97 
24.475 3.9527 668.9 
24.472 4.0429 668.84 
24.47 4.1342 668.77 
24.468 4.225 668.71 
24.464 4.3156 668.61 
24.462 4.4074 668.56 
24.46 4.4971 668.49 
24.458 4.5881 668.44 
24.455 4.6789 668.37 
24.452 4.7698 668.28 
24.45 4.8595 668.22 
24.448 4.9503 668.17 
24.446 5.0406 668.12 
24.444 5.1319 668.07 
24.442 5.2227 668 
24.439 5.3143 667.93 
24.437 5.4054 667.86 
24.435 5.4951 667.81 
24.433 5.5854 667.75 
24.431 5.6755 667.69 
24.429 5.7665 667.65 
24.427 5.8572 667.59 
24.425 5.9492 667.55 
24.423 6.0393 667.48 
24.421 6.1302 667.42 
24.419 6.2203 667.39 
24.418 6.3113 667.35 
24.416 6.4018 667.29 
24.414 6.4925 667.24 
24.411 6.5821 667.17 
24.409 6.6727 667.11 
24.408 6.7621 667.08 
24.406 6.8525 667.03 
24.405 6.9436 666.99 
24.403 7.0348 666.94 
24.401 7.1246 666.89 
24.399 7.2147 666.85 
24.398 7.3064 666.81 
24.397 7.398 666.77 
24.395 7.4877 666.72 
24.393 7.5769 666.67 
24.391 7.6668 666.62 
24.389 7.7576 666.57 
24.389 7.8485 666.55 
24.387 7.9396 666.51 
24.386 8.0297 666.47 
24.384 8.1198 666.42 
24.382 8.2108 666.38 
24.381 8.3011 666.34 
24.38 8.3913 666.32 
24.378 8.4814 666.27 
24.378 8.572 666.25 
24.376 8.6631 666.21 
24.374 8.753 666.16 
24.372 8.8424 666.1 
24.371 8.9334 666.06 
24.371 9.0248 666.06 
24.37 9.1151 666.03 
24.368 9.2052 665.98 
24.367 9.296 665.94 
24.366 9.3862 665.92 
24.365 9.4768 665.91 
24.364 9.5674 665.87 
24.362 9.6582 665.83 
24.361 9.7481 665.8 
24.36 9.8384 665.77 
24.359 9.9287 665.74 
24.358 10.02 665.71 
24.357 10.11 665.69 
24.356 10.2 665.66 
24.356 10.29 665.65 
24.354 10.38 665.61 
24.353 10.47 665.58 
24.353 10.561 665.57 
24.352 10.651 665.53 
24.35 10.742 665.49 
24.349 10.833 665.47 
24.349 10.923 665.46 
24.348 11.013 665.45 
24.347 11.104 665.42 
24.346 11.194 665.4 
24.345 11.284 665.36 
24.345 11.375 665.34 
24.343 11.466 665.31 
24.343 11.557 665.31 
24.343 11.647 665.3 
24.342 11.737 665.27 
24.341 11.827 665.25 
24.34 11.918 665.22 
24.339 12.008 665.2 
24.339 12.098 665.19 
24.339 12.188 665.19 
24.339 12.28 665.18 
24.338 12.37 665.15 
24.337 12.461 665.13 
24.336 12.551 665.12 
24.336 12.642 665.1 
24.336 12.732 665.11 
24.335 12.822 665.09 
24.334 12.912 665.06 
24.334 13.004 665.06 
24.334 13.095 665.05 
24.334 13.185 665.04 
24.333 13.275 665.02 
24.333 13.366 665.02 
24.332 13.457 665.01 
24.332 13.547 665 
24.332 13.637 664.99 
24.331 13.727 664.98 
24.331 13.817 664.98 
24.331 13.908 664.98 
24.331 13.999 664.97 
24.331 14.091 664.97 
24.33 14.18 664.96 
24.33 14.27 664.94 
24.33 14.361 664.93 
24.329 14.453 664.92 
24.329 14.544 664.92 
24.329 14.635 664.9 
24.328 14.724 664.89 
24.328 14.814 664.89 
24.328 14.905 664.89 
24.328 14.997 664.88 
24.327 15.086 664.87 
24.327 15.175 664.87 
24.327 15.266 664.87 
24.328 15.359 664.88 
24.328 15.45 664.88 
24.328 15.54 664.88 
24.327 15.63 664.87 
24.328 15.722 664.87 
24.328 15.813 664.88 
24.328 15.904 664.89 
24.328 15.993 664.9 
24.328 16.083 664.89 
24.328 16.173 664.89 
24.328 16.265 664.88 
24.328 16.357 664.89 
24.328 16.447 664.89 
24.328 16.536 664.89 
24.328 16.625 664.88 
24.328 16.716 664.89 
24.328 16.807 664.9 
24.329 16.898 664.91 
24.329 16.989 664.91 
24.329 17.08 664.91 
24.329 17.172 664.92 
24.329 17.264 664.92 
24.33 17.355 664.93 
24.33 17.446 664.95 
24.331 17.536 664.96 
24.33 17.626 664.96 
24.33 17.717 664.95 
24.331 17.808 664.96 
24.331 17.9 664.98 
24.332 17.991 665 
24.332 18.082 665.01 
24.333 18.173 665.02 
24.333 18.263 665.04 
24.333 18.355 665.04 
24.334 18.446 665.05 
24.334 18.538 665.06 
24.335 18.629 665.07 
24.335 18.72 665.08 
24.336 18.811 665.1 
24.337 18.902 665.13 
24.338 18.994 665.16 
24.338 19.086 665.17 
24.339 19.176 665.18 
24.339 19.267 665.19 
24.339 19.358 665.2 
24.34 19.45 665.21 
24.341 19.542 665.23 
24.342 19.633 665.27 
24.342 19.723 665.28 
24.343 19.814 665.29 
24.343 19.905 665.3 
24.344 19.998 665.33 
24.345 20.09 665.36 
24.346 20.181 665.38 
24.347 20.272 665.39 
24.347 20.363 665.41 
24.349 20.454 665.45 
24.35 20.546 665.49 
24.351 20.637 665.51 
24.352 20.729 665.54 
24.352 20.821 665.55 
24.353 20.912 665.57 
24.353 21.003 665.58 
24.354 21.095 665.6 
24.356 21.187 665.65 
24.357 21.279 665.68 
24.358 21.371 665.72 
24.359 21.462 665.74 
24.36 21.553 665.77 
24.361 21.645 665.79 
24.362 21.737 665.82 
24.363 21.83 665.86 
24.365 21.922 665.89 
24.366 22.014 665.94 
24.367 22.106 665.96 
24.368 22.197 665.99 
24.369 22.288 666.01 
24.371 22.381 666.06 
24.372 22.473 666.1 
24.374 22.565 666.13 
24.374 22.658 666.16 
24.376 22.75 666.2 
24.377 22.842 666.23 
24.378 22.933 666.24 
24.38 23.025 666.29 
24.382 23.119 666.36 
24.383 23.21 666.38 
24.384 23.302 666.41 
24.385 23.394 666.45 
24.387 23.486 666.5 
24.388 23.58 666.54 
24.39 23.672 666.58 
24.392 23.766 666.63 
24.393 23.858 666.67 
24.395 23.95 666.72 
24.396 24.042 666.75 
24.398 24.134 666.81 
24.4 24.227 666.85 
24.402 24.32 666.9 
24.403 24.412 666.94 
24.405 24.505 666.98 
24.407 24.598 667.03 
24.409 24.691 667.09 
24.41 24.783 667.13 
24.412 24.877 667.18 
24.414 24.97 667.24 
24.417 25.064 667.31 
24.419 25.156 667.36 
24.42 25.249 667.4 
24.422 25.342 667.46 
24.424 25.435 667.51 
24.426 25.529 667.57 
24.428 25.622 667.62 
24.43 25.716 667.68 
24.432 25.808 667.73 
24.434 25.901 667.78 
24.436 25.994 667.83 
24.438 26.088 667.9 
24.441 26.181 667.97 
24.443 26.275 668.03 
24.446 26.369 668.11 
24.449 26.463 668.19 
24.451 26.557 668.24 
24.452 26.65 668.28 
24.455 26.744 668.35 
24.458 26.838 668.43 
24.46 26.932 668.49 
24.462 27.026 668.56 
24.465 27.119 668.64 
24.468 27.213 668.71 
24.471 27.307 668.78 
24.473 27.401 668.86 
24.476 27.496 668.92 
24.478 27.591 668.99 
24.481 27.686 669.07 
24.484 27.78 669.15 
24.487 27.874 669.23 
24.49 27.968 669.31 
24.493 28.063 669.39 
24.496 28.158 669.47 
24.499 28.252 669.55 
24.502 28.347 669.64 
24.506 28.442 669.74 
24.509 28.538 669.83 
24.512 28.633 669.92 
24.515 28.728 669.99 
24.518 28.823 670.08 
24.521 28.919 670.17 
24.526 29.015 670.28 
24.53 29.112 670.39 
24.532 29.207 670.47 
24.535 29.301 670.55 
24.539 29.397 670.64 
24.542 29.491 670.73 
24.545 29.587 670.83 
24.549 29.684 670.92 
24.553 29.781 671.03 
24.558 29.878 671.16 
24.562 29.974 671.28 
24.566 30.07 671.39 
24.57 30.165 671.49 
24.574 30.261 671.6 
24.578 30.358 671.71 
24.582 30.456 671.84 
24.586 30.553 671.95 
24.591 30.651 672.06 
24.595 30.748 672.19 
24.601 30.846 672.33 
24.605 30.944 672.45 
24.609 31.041 672.58 
24.614 31.138 672.7 
24.618 31.235 672.82 
24.623 31.334 672.96 
24.629 31.434 673.12 
24.635 31.533 673.28 
24.641 31.631 673.44 
24.647 31.73 673.59 
24.652 31.828 673.73 
24.658 31.927 673.9 
24.664 32.027 674.06 
24.67 32.127 674.22 
24.676 32.227 674.4 
24.683 32.327 674.59 
24.69 32.427 674.77 
24.696 32.527 674.93 
24.702 32.629 675.11 
24.71 32.732 675.32 
24.718 32.834 675.55 
24.726 32.936 675.75 
24.733 33.039 675.96 
24.742 33.143 676.2 
24.752 33.248 676.46 
24.895 -2.4659 677.86 
24.886 -2.3715 677.62 
24.878 -2.277 677.41 
24.871 -2.1839 677.2 
24.863 -2.091 677 
24.855 -2.0001 676.77 
24.849 -1.9079 676.61 
24.842 -1.8169 676.43 
24.835 -1.724 676.24 
24.827 -1.6326 676.02 
24.819 -1.5399 675.81 
24.813 -1.4481 675.62 
24.806 -1.3544 675.44 
24.8 -1.2599 675.27 
24.792 -1.168 675.06 
24.786 -1.0755 674.89 
24.78 -0.98265 674.73 
24.775 -0.89049 674.59 
24.768 -0.79783 674.42 
24.762 -0.70613 674.24 
24.758 -0.61318 674.12 
24.751 -0.52326 673.95 
24.745 -0.42958 673.77 
24.74 -0.33776 673.64 
24.736 -0.24652 673.52 
24.73 -0.15463 673.37 
24.725 -0.061785 673.23 
24.719 0.031284 673.08 
24.715 0.12212 672.96 
24.711 0.21255 672.85 
24.705 0.30402 672.7 
24.701 0.39571 672.57 
24.697 0.48782 672.46 
24.692 0.57954 672.35 
24.689 0.67109 672.25 
24.684 0.76164 672.13 
24.679 0.85402 671.99 
24.675 0.94437 671.88 
24.672 1.0367 671.78 
24.668 1.1284 671.67 
24.663 1.2197 671.55 
24.66 1.3105 671.46 
24.656 1.4034 671.34 
24.652 1.4945 671.23 
24.648 1.5858 671.13 
24.644 1.6772 671.04 
24.641 1.7676 670.95 
24.637 1.8584 670.83 
24.633 1.9508 670.73 
24.629 2.0419 670.63 
24.626 2.1329 670.54 
24.622 2.2234 670.43 
24.619 2.3142 670.34 
24.615 2.4069 670.25 
24.612 2.4978 670.16 
24.609 2.5887 670.07 
24.606 2.6798 670 
24.603 2.7712 669.91 
24.601 2.8621 669.85 
24.597 2.953 669.75 
24.595 3.044 669.69 
24.592 3.1336 669.62 
24.589 3.225 669.52 
24.585 3.316 669.42 
24.582 3.4065 669.35 
24.58 3.4979 669.28 
24.577 3.5895 669.2 
24.574 3.6802 669.12 
24.571 3.7706 669.05 
24.569 3.8621 668.99 
24.567 3.9533 668.92 
24.564 4.043 668.86 
24.561 4.1339 668.77 
24.559 4.2248 668.72 
24.556 4.3156 668.63 
24.553 4.4067 668.55 
24.551 4.498 668.5 
24.549 4.5888 668.45 
24.546 4.6787 668.36 
24.543 4.7692 668.28 
24.541 4.8591 668.22 
24.539 4.9507 668.17 
24.538 5.0412 668.13 
24.536 5.1311 668.08 
24.533 5.2219 668 
24.531 5.314 667.95 
24.528 5.4056 667.88 
24.526 5.4957 667.82 
24.524 5.5855 667.76 
24.522 5.6751 667.72 
24.52 5.7662 667.64 
24.518 5.8576 667.6 
24.516 5.949 667.54 
24.514 6.0395 667.49 
24.511 6.1296 667.42 
24.51 6.2207 667.39 
24.509 6.3117 667.35 
24.507 6.4024 667.29 
24.505 6.4927 667.24 
24.502 6.5831 667.17 
24.501 6.6723 667.13 
24.499 6.7627 667.09 
24.498 6.8526 667.06 
24.496 6.9434 667 
24.495 7.0341 666.97 
24.493 7.1242 666.92 
24.491 7.2158 666.87 
24.489 7.3061 666.81 
24.488 7.3963 666.77 
24.486 7.4875 666.72 
24.484 7.577 666.68 
24.482 7.6679 666.62 
24.481 7.7582 666.58 
24.48 7.8486 666.55 
24.478 7.9405 666.5 
24.477 8.031 666.47 
24.475 8.1211 666.42 
24.473 8.2107 666.37 
24.472 8.3003 666.35 
24.471 8.3909 666.31 
24.469 8.4817 666.26 
24.468 8.5729 666.23 
24.467 8.663 666.2 
24.465 8.7526 666.16 
24.463 8.8424 666.11 
24.462 8.9334 666.08 
24.462 9.0251 666.06 
24.461 9.115 666.03 
24.459 9.2064 665.99 
24.458 9.2964 665.96 
24.457 9.3872 665.93 
24.456 9.477 665.91 
24.455 9.5673 665.88 
24.453 9.6574 665.84 
24.453 9.7481 665.81 
24.451 9.8388 665.77 
24.45 9.9299 665.75 
24.449 10.019 665.71 
24.448 10.109 665.68 
24.447 10.201 665.67 
24.446 10.29 665.65 
24.445 10.38 665.62 
24.444 10.471 665.59 
24.443 10.561 665.56 
24.443 10.652 665.55 
24.441 10.743 665.51 
24.44 10.833 665.48 
24.44 10.923 665.46 
24.439 11.013 665.45 
24.439 11.104 665.43 
24.438 11.194 665.41 
24.436 11.284 665.36 
24.436 11.375 665.35 
24.434 11.466 665.31 
24.434 11.557 665.3 
24.433 11.646 665.29 
24.433 11.736 665.28 
24.432 11.827 665.26 
24.431 11.918 665.22 
24.431 12.007 665.22 
24.43 12.098 665.21 
24.43 12.189 665.19 
24.429 12.28 665.17 
24.429 12.371 665.16 
24.428 12.461 665.13 
24.427 12.551 665.11 
24.427 12.641 665.11 
24.426 12.732 665.1 
24.426 12.822 665.1 
24.426 12.912 665.08 
24.425 13.003 665.07 
24.425 13.095 665.05 
24.424 13.184 665.05 
24.424 13.275 665.03 
24.423 13.366 665.02 
24.423 13.456 665.02 
24.423 13.545 665.01 
24.423 13.636 665 
24.423 13.727 665 
24.422 13.817 664.99 
24.422 13.907 664.98 
24.422 13.999 664.97 
24.422 14.091 664.97 
24.421 14.181 664.96 
24.421 14.271 664.95 
24.42 14.362 664.93 
24.42 14.454 664.93 
24.421 14.544 664.94 
24.42 14.634 664.92 
24.419 14.725 664.91 
24.419 14.815 664.91 
24.419 14.906 664.91 
24.419 14.996 664.9 
24.419 15.086 664.9 
24.419 15.175 664.89 
24.419 15.267 664.89 
24.419 15.359 664.89 
24.419 15.451 664.89 
24.419 15.539 664.88 
24.419 15.629 664.89 
24.419 15.722 664.89 
24.419 15.813 664.89 
24.419 15.904 664.9 
24.419 15.994 664.9 
24.419 16.083 664.9 
24.419 16.172 664.89 
24.419 16.264 664.88 
24.419 16.356 664.89 
24.419 16.446 664.89 
24.418 16.536 664.88 
24.419 16.626 664.89 
24.419 16.716 664.9 
24.419 16.807 664.9 
24.419 16.898 664.89 
24.419 16.989 664.91 
24.42 17.082 664.93 
24.42 17.173 664.93 
24.42 17.263 664.91 
24.42 17.354 664.92 
24.421 17.444 664.94 
24.421 17.535 664.96 
24.421 17.625 664.96 
24.421 17.717 664.95 
24.422 17.809 664.97 
24.422 17.9 664.99 
24.423 17.991 665 
24.423 18.082 665.01 
24.423 18.172 665.02 
24.424 18.263 665.04 
24.424 18.354 665.04 
24.424 18.446 665.04 
24.425 18.537 665.06 
24.425 18.629 665.07 
24.426 18.719 665.08 
24.427 18.811 665.1 
24.428 18.903 665.13 
24.429 18.995 665.16 
24.429 19.086 665.18 
24.43 19.176 665.19 
24.43 19.267 665.2 
24.43 19.358 665.2 
24.431 19.45 665.21 
24.432 19.542 665.25 
24.433 19.633 665.28 
24.433 19.723 665.28 
24.434 19.814 665.3 
24.434 19.905 665.31 
24.435 19.997 665.33 
24.436 20.089 665.35 
24.437 20.181 665.38 
24.438 20.273 665.41 
24.439 20.363 665.43 
24.439 20.454 665.45 
24.441 20.545 665.48 
24.442 20.637 665.51 
24.442 20.728 665.52 
24.443 20.821 665.55 
24.444 20.912 665.57 
24.445 21.003 665.59 
24.445 21.094 665.61 
24.447 21.186 665.65 
24.448 21.279 665.69 
24.449 21.371 665.72 
24.45 21.463 665.75 
24.452 21.555 665.78 
24.453 21.646 665.81 
24.454 21.737 665.84 
24.455 21.829 665.87 
24.456 21.921 665.9 
24.457 22.014 665.94 
24.459 22.106 665.97 
24.459 22.198 665.99 
24.46 22.289 666.02 
24.462 22.381 666.07 
24.463 22.472 666.1 
24.464 22.565 666.13 
24.465 22.658 666.15 
24.466 22.75 666.18 
24.468 22.841 666.22 
24.469 22.934 666.25 
24.471 23.026 666.3 
24.473 23.119 666.36 
24.474 23.21 666.38 
24.475 23.302 666.41 
24.477 23.394 666.46 
24.478 23.487 666.51 
24.48 23.58 666.54 
24.481 23.672 666.58 
24.483 23.766 666.64 
24.485 23.858 666.69 
24.486 23.95 666.73 
24.488 24.042 666.78 
24.49 24.134 666.82 
24.491 24.227 666.86 
24.493 24.32 666.9 
24.494 24.412 666.95 
24.496 24.505 666.98 
24.498 24.597 667.04 
24.5 24.691 667.1 
24.501 24.784 667.14 
24.503 24.877 667.19 
24.506 24.971 667.25 
24.508 25.064 667.31 
24.51 25.156 667.36 
24.511 25.248 667.41 
24.513 25.342 667.47 
24.515 25.435 667.52 
24.517 25.528 667.57 
24.519 25.622 667.62 
24.522 25.716 667.69 
24.524 25.809 667.75 
24.526 25.902 667.79 
24.528 25.994 667.85 
24.53 26.088 667.91 
24.532 26.181 667.97 
24.535 26.275 668.04 
24.538 26.37 668.12 
24.54 26.464 668.19 
24.542 26.557 668.23 
24.543 26.65 668.28 
24.546 26.745 668.35 
24.549 26.839 668.43 
24.551 26.932 668.5 
24.553 27.025 668.55 
24.556 27.119 668.63 
24.559 27.213 668.7 
24.561 27.307 668.77 
24.564 27.401 668.84 
24.567 27.496 668.92 
24.57 27.591 669 
24.573 27.686 669.08 
24.576 27.78 669.16 
24.579 27.874 669.25 
24.582 27.969 669.33 
24.585 28.064 669.4 
24.587 28.158 669.48 
24.59 28.252 669.55 
24.593 28.346 669.63 
24.596 28.441 669.73 
24.6 28.538 669.83 
24.603 28.633 669.92 
24.606 28.729 670 
24.61 28.824 670.09 
24.613 28.92 670.18 
24.617 29.015 670.27 
24.621 29.111 670.39 
24.624 29.206 670.48 
24.627 29.302 670.56 
24.631 29.397 670.66 
24.634 29.493 670.75 
24.637 29.588 670.83 
24.641 29.684 670.92 
24.645 29.78 671.04 
24.649 29.877 671.16 
24.654 29.975 671.29 
24.658 30.071 671.4 
24.662 30.166 671.51 
24.666 30.262 671.61 
24.67 30.36 671.74 
24.675 30.458 671.87 
24.679 30.555 671.97 
24.683 30.652 672.07 
24.688 30.749 672.2 
24.693 30.846 672.34 
24.697 30.944 672.46 
24.702 31.041 672.59 
24.707 31.139 672.73 
24.711 31.236 672.85 
24.716 31.335 672.98 
24.722 31.436 673.15 
24.728 31.534 673.3 
24.733 31.632 673.45 
24.739 31.731 673.6 
24.744 31.829 673.75 
24.751 31.929 673.92 
24.756 32.028 674.07 
24.762 32.128 674.24 
24.769 32.227 674.43 
24.776 32.327 674.62 
24.782 32.427 674.79 
24.789 32.528 674.96 
24.795 32.629 675.13 
24.802 32.731 675.32 
24.81 32.834 675.55 
24.818 32.938 675.76 
24.826 33.041 675.98 
24.836 33.146 676.24 
24.845 33.251 676.51 
25.007 -2.6483 678.38 
24.998 -2.5573 678.14 
24.987 -2.465 677.84 
24.98 -2.3717 677.65 
24.969 -2.2754 677.37 
24.963 -2.1834 677.19 
24.957 -2.091 677.05 
24.95 -2.0003 676.84 
24.942 -1.9081 676.64 
24.936 -1.8149 676.48 
24.927 -1.7212 676.24 
24.92 -1.6313 676.04 
24.912 -1.5405 675.81 
24.905 -1.4477 675.64 
24.898 -1.3541 675.44 
24.892 -1.2608 675.28 
24.884 -1.1676 675.07 
24.878 -1.0745 674.89 
24.873 -0.98175 674.75 
24.867 -0.88876 674.6 
24.862 -0.79867 674.45 
24.855 -0.70541 674.26 
24.849 -0.61298 674.12 
24.843 -0.52252 673.95 
24.837 -0.43047 673.78 
24.832 -0.33794 673.64 
24.827 -0.24546 673.52 
24.822 -0.15352 673.38 
24.816 -0.062396 673.22 
24.811 0.031228 673.08 
24.806 0.12219 672.95 
24.802 0.21348 672.82 
24.797 0.30499 672.7 
24.792 0.3968 672.56 
24.788 0.48764 672.46 
24.784 0.57954 672.35 
24.781 0.67114 672.26 
24.776 0.76237 672.13 
24.772 0.85317 672.02 
24.768 0.94545 671.9 
24.763 1.0366 671.78 
24.76 1.1282 671.68 
24.755 1.2206 671.56 
24.752 1.3114 671.46 
24.747 1.4029 671.34 
24.743 1.4942 671.24 
24.74 1.5846 671.14 
24.736 1.6779 671.04 
24.733 1.7683 670.95 
24.728 1.859 670.83 
24.724 1.9511 670.73 
24.721 2.0418 670.64 
24.717 2.1323 670.53 
24.713 2.2229 670.43 
24.711 2.3141 670.35 
24.708 2.4074 670.28 
24.704 2.498 670.18 
24.701 2.5886 670.09 
24.698 2.6799 670.01 
24.695 2.7706 669.94 
24.693 2.8621 669.87 
24.69 2.9531 669.78 
24.687 3.0441 669.72 
24.684 3.1351 669.64 
24.681 3.2258 669.54 
24.677 3.3173 669.43 
24.674 3.4083 669.35 
24.67 3.4979 669.26 
24.668 3.5899 669.19 
24.665 3.6806 669.13 
24.663 3.7716 669.05 
24.661 3.8613 668.99 
24.658 3.9526 668.93 
24.655 4.0434 668.86 
24.653 4.1346 668.8 
24.65 4.2253 668.72 
24.647 4.3164 668.63 
24.644 4.4063 668.56 
24.642 4.4977 668.5 
24.64 4.5877 668.44 
24.637 4.6785 668.35 
24.635 4.7686 668.3 
24.633 4.8598 668.24 
24.63 4.9508 668.18 
24.628 5.0407 668.12 
24.627 5.131 668.07 
24.624 5.2224 668.01 
24.622 5.3134 667.95 
24.62 5.4056 667.89 
24.617 5.4954 667.81 
24.615 5.5854 667.76 
24.613 5.6751 667.72 
24.611 5.7662 667.65 
24.609 5.857 667.6 
24.607 5.9483 667.54 
24.605 6.039 667.49 
24.603 6.1297 667.44 
24.601 6.2208 667.39 
24.599 6.3116 667.34 
24.598 6.4026 667.28 
24.596 6.4922 667.24 
24.594 6.5824 667.19 
24.592 6.6726 667.14 
24.591 6.7628 667.1 
24.589 6.8529 667.06 
24.587 6.9426 666.99 
24.586 7.0339 666.96 
24.584 7.125 666.92 
24.583 7.2153 666.88 
24.58 7.3059 666.82 
24.578 7.3958 666.76 
24.577 7.4864 666.72 
24.575 7.5774 666.68 
24.574 7.6682 666.64 
24.572 7.7588 666.59 
24.571 7.8484 666.56 
24.569 7.9391 666.52 
24.567 8.0309 666.46 
24.566 8.1212 666.43 
24.564 8.2113 666.38 
24.563 8.3012 666.35 
24.562 8.3919 666.31 
24.56 8.4825 666.27 
24.558 8.5723 666.22 
24.557 8.6617 666.19 
24.556 8.7519 666.16 
24.554 8.8423 666.12 
24.554 8.9335 666.09 
24.553 9.024 666.07 
24.552 9.1149 666.04 
24.55 9.2066 666.01 
24.549 9.2968 665.97 
24.548 9.3867 665.93 
24.547 9.4764 665.9 
24.545 9.5663 665.87 
24.544 9.6576 665.84 
24.544 9.7478 665.82 
24.542 9.8381 665.77 
24.541 9.9293 665.74 
24.54 10.019 665.73 
24.539 10.11 665.69 
24.538 10.201 665.67 
24.537 10.291 665.64 
24.536 10.381 665.61 
24.535 10.47 665.58 
24.534 10.561 665.56 
24.533 10.652 665.53 
24.532 10.743 665.51 
24.532 10.832 665.49 
24.531 10.923 665.48 
24.53 11.013 665.45 
24.53 11.103 665.44 
24.529 11.194 665.41 
24.527 11.285 665.38 
24.527 11.375 665.36 
24.526 11.465 665.33 
24.525 11.557 665.31 
24.524 11.646 665.3 
24.524 11.737 665.28 
24.523 11.827 665.26 
24.522 11.917 665.23 
24.521 12.007 665.21 
24.521 12.098 665.21 
24.52 12.189 665.19 
24.52 12.28 665.19 
24.52 12.371 665.17 
24.519 12.461 665.14 
24.518 12.551 665.12 
24.518 12.642 665.12 
24.517 12.732 665.1 
24.517 12.822 665.09 
24.516 12.913 665.06 
24.515 13.004 665.05 
24.516 13.095 665.06 
24.515 13.185 665.06 
24.515 13.275 665.04 
24.515 13.366 665.03 
24.515 13.456 665.03 
24.514 13.545 665.02 
24.514 13.635 665.01 
24.513 13.726 665 
24.513 13.816 664.98 
24.512 13.907 664.97 
24.512 13.999 664.97 
24.513 14.091 664.98 
24.512 14.181 664.96 
24.511 14.271 664.94 
24.511 14.363 664.92 
24.511 14.454 664.93 
24.512 14.544 664.95 
24.511 14.633 664.93 
24.511 14.724 664.93 
24.51 14.816 664.91 
24.511 14.907 664.92 
24.51 14.997 664.91 
24.511 15.086 664.92 
24.51 15.176 664.91 
24.51 15.268 664.92 
24.51 15.359 664.91 
24.51 15.45 664.91 
24.51 15.539 664.91 
24.51 15.629 664.91 
24.51 15.72 664.9 
24.51 15.812 664.9 
24.509 15.903 664.88 
24.509 15.994 664.89 
24.509 16.083 664.88 
24.509 16.172 664.89 
24.509 16.264 664.88 
24.509 16.356 664.89 
24.509 16.446 664.89 
24.51 16.536 664.89 
24.51 16.627 664.9 
24.51 16.717 664.91 
24.51 16.807 664.9 
24.51 16.899 664.89 
24.511 16.991 664.92 
24.511 17.082 664.94 
24.511 17.173 664.93 
24.511 17.263 664.93 
24.511 17.354 664.93 
24.512 17.444 664.95 
24.512 17.534 664.96 
24.513 17.625 664.97 
24.512 17.717 664.96 
24.513 17.809 664.98 
24.513 17.9 665 
24.514 17.992 665 
24.514 18.081 665 
24.514 18.172 665 
24.515 18.263 665.03 
24.515 18.354 665.05 
24.516 18.446 665.05 
24.516 18.537 665.06 
24.517 18.628 665.08 
24.517 18.719 665.09 
24.517 18.81 665.1 
24.518 18.903 665.12 
24.519 18.995 665.16 
24.52 19.086 665.17 
24.521 19.177 665.19 
24.52 19.268 665.19 
24.521 19.358 665.2 
24.522 19.45 665.23 
24.523 19.541 665.27 
24.524 19.633 665.29 
24.524 19.723 665.29 
24.524 19.814 665.29 
24.525 19.905 665.32 
24.526 19.997 665.34 
24.527 20.089 665.36 
24.528 20.181 665.39 
24.529 20.272 665.41 
24.529 20.363 665.42 
24.53 20.453 665.45 
24.531 20.545 665.48 
24.532 20.637 665.51 
24.533 20.728 665.52 
24.534 20.82 665.55 
24.535 20.912 665.58 
24.536 21.003 665.6 
24.537 21.095 665.62 
24.538 21.187 665.67 
24.539 21.279 665.69 
24.54 21.372 665.73 
24.541 21.464 665.75 
24.542 21.555 665.78 
24.544 21.646 665.82 
24.545 21.737 665.85 
24.546 21.829 665.88 
24.547 21.922 665.91 
24.548 22.014 665.94 
24.549 22.106 665.97 
24.55 22.197 665.99 
24.551 22.289 666.02 
24.553 22.38 666.06 
24.553 22.471 666.08 
24.555 22.565 666.12 
24.556 22.658 666.15 
24.557 22.75 666.19 
24.559 22.842 666.23 
24.56 22.934 666.27 
24.562 23.026 666.31 
24.563 23.118 666.34 
24.565 23.21 666.38 
24.566 23.302 666.42 
24.567 23.394 666.46 
24.569 23.487 666.51 
24.57 23.58 666.54 
24.572 23.672 666.58 
24.574 23.765 666.64 
24.576 23.858 666.69 
24.577 23.95 666.73 
24.579 24.042 666.78 
24.581 24.134 666.82 
24.582 24.227 666.86 
24.584 24.32 666.91 
24.585 24.412 666.95 
24.587 24.505 666.99 
24.589 24.598 667.04 
24.591 24.691 667.1 
24.593 24.785 667.15 
24.595 24.878 667.21 
24.597 24.971 667.26 
24.599 25.064 667.31 
24.601 25.157 667.37 
24.603 25.248 667.41 
24.604 25.341 667.46 
24.607 25.435 667.52 
24.609 25.529 667.59 
24.611 25.622 667.63 
24.613 25.716 667.7 
24.615 25.809 667.75 
24.617 25.902 667.81 
24.619 25.995 667.87 
24.622 26.089 667.93 
24.623 26.182 667.98 
24.626 26.274 668.04 
24.628 26.369 668.11 
24.631 26.464 668.18 
24.633 26.557 668.24 
24.635 26.651 668.29 
24.638 26.745 668.36 
24.64 26.839 668.43 
24.643 26.932 668.5 
24.645 27.025 668.56 
24.647 27.119 668.62 
24.65 27.213 668.7 
24.653 27.308 668.77 
24.656 27.402 668.85 
24.659 27.497 668.93 
24.662 27.592 669.01 
24.664 27.686 669.09 
24.667 27.78 669.16 
24.67 27.874 669.25 
24.673 27.969 669.33 
24.676 28.063 669.41 
24.679 28.157 669.48 
24.682 28.252 669.56 
24.685 28.347 669.64 
24.688 28.442 669.73 
24.691 28.537 669.82 
24.695 28.633 669.92 
24.698 28.729 670.01 
24.701 28.824 670.09 
24.705 28.92 670.18 
24.708 29.015 670.27 
24.712 29.11 670.37 
24.716 29.206 670.48 
24.719 29.303 670.57 
24.723 29.398 670.67 
24.726 29.493 670.75 
24.729 29.589 670.83 
24.732 29.684 670.92 
24.737 29.781 671.05 
24.742 29.879 671.19 
24.746 29.975 671.31 
24.75 30.071 671.42 
24.754 30.166 671.51 
24.758 30.263 671.62 
24.763 30.362 671.76 
24.767 30.459 671.88 
24.771 30.555 671.97 
24.775 30.652 672.09 
24.78 30.75 672.22 
24.785 30.846 672.35 
24.789 30.944 672.48 
24.794 31.043 672.61 
24.799 31.141 672.74 
24.804 31.238 672.87 
24.809 31.336 673.01 
24.814 31.435 673.16 
24.82 31.533 673.31 
24.825 31.632 673.46 
24.831 31.731 673.6 
24.836 31.829 673.74 
24.842 31.929 673.91 
24.849 32.029 674.09 
24.855 32.128 674.27 
24.862 32.228 674.45 
24.869 32.328 674.64 
24.875 32.427 674.79 
24.881 32.528 674.96 
24.887 32.629 675.14 
24.895 32.732 675.34 
24.904 32.836 675.58 
24.912 32.94 675.81 
24.92 33.045 676.03 
24.929 33.148 676.28 
24.938 33.252 676.51 
24.946 33.353 676.72 
25.095 -2.6502 678.26 
25.088 -2.5596 678.08 
25.08 -2.465 677.87 
25.072 -2.374 677.65 
25.063 -2.2788 677.4 
25.056 -2.1854 677.22 
25.05 -2.093 677.06 
25.042 -2.0022 676.85 
25.036 -1.9076 676.67 
25.028 -1.8139 676.45 
25.022 -1.7212 676.29 
25.012 -1.6317 676.04 
25.004 -1.5386 675.82 
24.998 -1.4453 675.64 
24.991 -1.3531 675.47 
24.986 -1.2601 675.32 
24.978 -1.1676 675.11 
24.971 -1.0745 674.93 
24.965 -0.98171 674.77 
24.959 -0.89014 674.61 
24.954 -0.79883 674.45 
24.947 -0.70638 674.27 
24.941 -0.61395 674.11 
24.936 -0.52248 673.96 
24.929 -0.4308 673.8 
24.925 -0.33833 673.66 
24.918 -0.24547 673.5 
24.914 -0.15371 673.38 
24.909 -0.062039 673.25 
24.904 0.02946 673.1 
24.899 0.12186 672.97 
24.893 0.21413 672.82 
24.889 0.30647 672.69 
24.885 0.39777 672.59 
24.88 0.48757 672.45 
24.876 0.57963 672.36 
24.872 0.67105 672.25 
24.868 0.76291 672.13 
24.864 0.8539 672.02 
24.861 0.94631 671.94 
24.856 1.0383 671.8 
24.85 1.1298 671.66 
24.847 1.2206 671.56 
24.843 1.3122 671.46 
24.839 1.4028 671.35 
24.835 1.4944 671.24 
24.831 1.5851 671.13 
24.828 1.6766 671.05 
24.823 1.7674 670.93 
24.819 1.8584 670.81 
24.816 1.9503 670.72 
24.813 2.0407 670.64 
24.809 2.1322 670.53 
24.805 2.2227 670.43 
24.802 2.3141 670.36 
24.8 2.4063 670.28 
24.797 2.4973 670.21 
24.793 2.5885 670.1 
24.79 2.6799 670.03 
24.787 2.7705 669.95 
24.785 2.8623 669.88 
24.782 2.9527 669.8 
24.778 3.0433 669.71 
24.775 3.1352 669.63 
24.772 3.2263 669.55 
24.769 3.3176 669.45 
24.765 3.4078 669.36 
24.762 3.4981 669.26 
24.759 3.5899 669.19 
24.757 3.6808 669.13 
24.754 3.7725 669.07 
24.752 3.8616 669 
24.75 3.9518 668.93 
24.747 4.0428 668.87 
24.744 4.1341 668.79 
24.741 4.225 668.71 
24.739 4.3155 668.64 
24.736 4.4065 668.57 
24.734 4.497 668.5 
24.732 4.5866 668.45 
24.728 4.6773 668.36 
24.726 4.7686 668.31 
24.724 4.8606 668.25 
24.722 4.9506 668.18 
24.72 5.0412 668.13 
24.718 5.1309 668.07 
24.715 5.2225 668.01 
24.713 5.3144 667.96 
24.711 5.4059 667.89 
24.709 5.4959 667.83 
24.706 5.5859 667.76 
24.704 5.676 667.7 
24.702 5.7663 667.66 
24.7 5.8574 667.6 
24.699 5.9477 667.56 
24.697 6.0389 667.5 
24.695 6.1294 667.46 
24.693 6.2212 667.39 
24.691 6.3111 667.34 
24.689 6.4022 667.29 
24.687 6.4919 667.24 
24.685 6.5822 667.17 
24.684 6.6726 667.15 
24.682 6.7622 667.11 
24.68 6.852 667.06 
24.678 6.9423 667 
24.677 7.0331 666.96 
24.675 7.1246 666.91 
24.673 7.215 666.87 
24.671 7.3058 666.82 
24.669 7.3965 666.75 
24.667 7.4873 666.71 
24.666 7.5775 666.67 
24.664 7.6684 666.63 
24.663 7.7577 666.6 
24.662 7.8482 666.56 
24.66 7.9387 666.52 
24.659 8.0296 666.48 
24.657 8.1204 666.44 
24.656 8.2114 666.39 
24.654 8.3022 666.35 
24.653 8.3917 666.31 
24.651 8.4817 666.28 
24.65 8.5718 666.24 
24.648 8.6613 666.19 
24.647 8.752 666.17 
24.646 8.8419 666.13 
24.645 8.9329 666.1 
24.644 9.024 666.07 
24.643 9.1153 666.05 
24.641 9.2058 666.01 
24.64 9.2962 665.97 
24.638 9.3861 665.93 
24.637 9.4753 665.9 
24.637 9.5658 665.88 
24.636 9.6572 665.85 
24.634 9.7477 665.81 
24.633 9.8381 665.78 
24.632 9.9282 665.75 
24.631 10.019 665.73 
24.63 10.11 665.69 
24.629 10.2 665.68 
24.628 10.29 665.64 
24.626 10.381 665.6 
24.626 10.47 665.58 
24.625 10.561 665.56 
24.624 10.652 665.54 
24.623 10.743 665.51 
24.622 10.833 665.49 
24.621 10.922 665.46 
24.62 11.012 665.44 
24.619 11.103 665.41 
24.619 11.194 665.41 
24.618 11.285 665.38 
24.617 11.375 665.36 
24.617 11.465 665.34 
24.616 11.556 665.33 
24.616 11.648 665.31 
24.614 11.738 665.27 
24.613 11.826 665.25 
24.613 11.917 665.23 
24.612 12.007 665.21 
24.612 12.098 665.21 
24.612 12.19 665.2 
24.611 12.28 665.19 
24.61 12.37 665.16 
24.609 12.461 665.14 
24.609 12.551 665.13 
24.609 12.642 665.12 
24.608 12.732 665.1 
24.607 12.823 665.08 
24.606 12.913 665.04 
24.606 13.004 665.05 
24.606 13.095 665.05 
24.606 13.185 665.06 
24.606 13.275 665.05 
24.605 13.365 665.03 
24.605 13.456 665.02 
24.604 13.545 665 
24.604 13.636 664.98 
24.603 13.727 664.98 
24.603 13.817 664.96 
24.603 13.907 664.96 
24.603 13.999 664.97 
24.603 14.09 664.98 
24.602 14.18 664.95 
24.602 14.272 664.93 
24.601 14.364 664.92 
24.601 14.454 664.93 
24.602 14.543 664.94 
24.602 14.633 664.93 
24.602 14.724 664.93 
24.602 14.816 664.93 
24.601 14.907 664.93 
24.601 14.996 664.92 
24.602 15.085 664.93 
24.602 15.176 664.93 
24.601 15.267 664.92 
24.601 15.359 664.92 
24.602 15.45 664.93 
24.602 15.539 664.93 
24.602 15.628 664.93 
24.601 15.718 664.92 
24.601 15.81 664.9 
24.6 15.903 664.89 
24.6 15.994 664.88 
24.6 16.084 664.89 
24.6 16.173 664.89 
24.6 16.264 664.89 
24.6 16.356 664.88 
24.599 16.446 664.87 
24.6 16.536 664.88 
24.601 16.627 664.9 
24.601 16.718 664.91 
24.601 16.808 664.91 
24.601 16.9 664.92 
24.602 16.992 664.93 
24.602 17.082 664.94 
24.602 17.173 664.93 
24.602 17.263 664.95 
24.602 17.354 664.95 
24.603 17.444 664.96 
24.603 17.535 664.97 
24.603 17.626 664.97 
24.603 17.717 664.97 
24.604 17.808 664.98 
24.604 17.9 665 
24.605 17.991 665.01 
24.605 18.081 665.01 
24.605 18.172 665.01 
24.605 18.263 665.03 
24.606 18.355 665.05 
24.607 18.446 665.06 
24.607 18.536 665.07 
24.608 18.627 665.1 
24.608 18.719 665.11 
24.609 18.811 665.12 
24.609 18.902 665.13 
24.61 18.994 665.15 
24.61 19.086 665.16 
24.611 19.177 665.18 
24.611 19.268 665.19 
24.612 19.359 665.21 
24.613 19.45 665.25 
24.614 19.541 665.27 
24.615 19.632 665.28 
24.615 19.723 665.29 
24.615 19.814 665.29 
24.616 19.906 665.33 
24.617 19.997 665.35 
24.618 20.089 665.37 
24.619 20.181 665.39 
24.619 20.272 665.41 
24.62 20.363 665.42 
24.621 20.454 665.45 
24.622 20.545 665.48 
24.623 20.637 665.51 
24.624 20.728 665.53 
24.625 20.82 665.55 
24.626 20.912 665.58 
24.627 21.003 665.6 
24.628 21.095 665.64 
24.629 21.188 665.66 
24.63 21.28 665.69 
24.631 21.371 665.72 
24.632 21.464 665.75 
24.633 21.555 665.79 
24.634 21.646 665.81 
24.635 21.737 665.84 
24.636 21.83 665.86 
24.638 21.923 665.9 
24.639 22.015 665.94 
24.64 22.106 665.97 
24.641 22.197 665.99 
24.642 22.288 666.01 
24.643 22.38 666.06 
24.644 22.472 666.08 
24.646 22.565 666.12 
24.647 22.659 666.15 
24.649 22.751 666.21 
24.65 22.842 666.24 
24.652 22.935 666.29 
24.653 23.026 666.31 
24.654 23.118 666.34 
24.655 23.21 666.38 
24.657 23.302 666.42 
24.659 23.395 666.47 
24.66 23.488 666.52 
24.662 23.58 666.56 
24.663 23.673 666.59 
24.665 23.765 666.63 
24.666 23.858 666.68 
24.668 23.95 666.73 
24.67 24.042 666.77 
24.671 24.134 666.82 
24.673 24.227 666.87 
24.675 24.321 666.92 
24.676 24.412 666.95 
24.678 24.504 666.99 
24.68 24.598 667.04 
24.682 24.692 667.1 
24.685 24.786 667.17 
24.687 24.878 667.24 
24.689 24.971 667.28 
24.69 25.064 667.32 
24.692 25.157 667.37 
24.694 25.249 667.43 
24.696 25.342 667.47 
24.698 25.435 667.52 
24.7 25.529 667.58 
24.701 25.622 667.63 
24.704 25.716 667.71 
24.707 25.808 667.76 
24.708 25.902 667.81 
24.711 25.995 667.87 
24.713 26.089 667.93 
24.715 26.182 667.99 
24.717 26.275 668.04 
24.719 26.369 668.11 
24.722 26.464 668.18 
24.724 26.558 668.24 
24.726 26.651 668.29 
24.729 26.745 668.36 
24.731 26.839 668.44 
24.734 26.932 668.5 
24.736 27.025 668.56 
24.738 27.119 668.62 
24.741 27.213 668.7 
24.744 27.308 668.79 
24.747 27.403 668.87 
24.75 27.498 668.95 
24.753 27.593 669.02 
24.756 27.687 669.09 
24.758 27.78 669.16 
24.762 27.875 669.25 
24.765 27.969 669.33 
24.767 28.063 669.41 
24.771 28.158 669.49 
24.774 28.253 669.57 
24.777 28.348 669.66 
24.78 28.443 669.74 
24.783 28.538 669.82 
24.786 28.633 669.91 
24.79 28.728 670.01 
24.793 28.824 670.11 
24.796 28.92 670.19 
24.799 29.014 670.26 
24.803 29.11 670.36 
24.807 29.206 670.47 
24.811 29.302 670.58 
24.814 29.398 670.67 
24.817 29.494 670.75 
24.821 29.59 670.86 
24.825 29.685 670.96 
24.83 29.782 671.09 
24.834 29.88 671.21 
24.839 29.976 671.33 
24.842 30.071 671.44 
24.846 30.167 671.53 
24.85 30.264 671.65 
24.855 30.362 671.76 
24.858 30.458 671.86 
24.862 30.554 671.96 
24.867 30.651 672.09 
24.872 30.749 672.22 
24.876 30.845 672.35 
24.881 30.944 672.48 
24.886 31.043 672.62 
24.891 31.142 672.75 
24.896 31.239 672.88 
24.901 31.336 673.02 
24.906 31.433 673.16 
24.913 31.533 673.33 
24.918 31.633 673.48 
24.923 31.731 673.6 
24.928 31.83 673.75 
24.935 31.93 673.92 
24.941 32.031 674.11 
24.948 32.13 674.29 
24.954 32.229 674.46 
24.961 32.329 674.64 
24.967 32.428 674.79 
24.972 32.528 674.95 
24.979 32.63 675.14 
24.988 32.734 675.37 
24.996 32.836 675.59 
25.004 32.94 675.8 
25.012 33.044 676.02 
25.021 33.148 676.26 
25.03 33.251 676.51 
25.038 33.354 676.73 
25.177 -2.5596 677.99 
25.172 -2.466 677.86 
25.166 -2.373 677.7 
25.158 -2.2816 677.46 
25.15 -2.1859 677.27 
25.144 -2.0933 677.09 
25.137 -2.0019 676.91 
25.129 -1.9069 676.71 
25.122 -1.8155 676.5 
25.115 -1.721 676.31 
25.106 -1.6297 676.08 
25.097 -1.5381 675.85 
25.091 -1.4438 675.67 
25.085 -1.3531 675.51 
25.079 -1.2594 675.35 
25.07 -1.1677 675.11 
25.063 -1.0748 674.92 
25.058 -0.98284 674.77 
25.051 -0.89041 674.61 
25.045 -0.79885 674.43 
25.038 -0.70655 674.25 
25.032 -0.6141 674.09 
25.029 -0.52081 674 
25.023 -0.43089 673.83 
25.017 -0.33689 673.67 
25.011 -0.24555 673.52 
25.007 -0.15381 673.4 
25.002 -0.062029 673.27 
24.997 0.028282 673.14 
24.991 0.1213 672.97 
24.985 0.2133 672.83 
24.981 0.30608 672.71 
24.977 0.39741 672.59 
24.971 0.48901 672.45 
24.967 0.57945 672.34 
24.963 0.67096 672.23 
24.959 0.76289 672.11 
24.955 0.85406 672.02 
24.951 0.94735 671.91 
24.947 1.0389 671.79 
24.942 1.1284 671.67 
24.939 1.2198 671.57 
24.934 1.3113 671.46 
24.931 1.402 671.35 
24.926 1.4944 671.23 
24.922 1.5844 671.13 
24.919 1.6763 671.03 
24.915 1.7672 670.93 
24.91 1.8583 670.81 
24.907 1.9506 670.72 
24.904 2.042 670.65 
24.901 2.1322 670.55 
24.897 2.2234 670.44 
24.894 2.3145 670.37 
24.892 2.4057 670.3 
24.889 2.4977 670.23 
24.885 2.5896 670.12 
24.882 2.6795 670.03 
24.878 2.7704 669.94 
24.876 2.8622 669.87 
24.872 2.9524 669.77 
24.869 3.043 669.68 
24.866 3.1347 669.62 
24.863 3.2262 669.54 
24.86 3.3177 669.45 
24.857 3.4084 669.37 
24.854 3.4988 669.28 
24.851 3.5906 669.21 
24.848 3.6809 669.13 
24.846 3.7715 669.08 
24.843 3.8616 669 
24.841 3.9511 668.94 
24.838 4.043 668.86 
24.836 4.1347 668.79 
24.833 4.2253 668.72 
24.83 4.3156 668.64 
24.827 4.4061 668.57 
24.825 4.4974 668.51 
24.823 4.5869 668.46 
24.821 4.6782 668.39 
24.818 4.7694 668.32 
24.816 4.8607 668.26 
24.814 4.9511 668.21 
24.811 5.0414 668.13 
24.809 5.1312 668.07 
24.807 5.2224 668.01 
24.804 5.3144 667.95 
24.803 5.4056 667.9 
24.8 5.4953 667.84 
24.797 5.586 667.76 
24.796 5.6759 667.71 
24.793 5.7657 667.64 
24.791 5.8567 667.6 
24.79 5.9481 667.55 
24.788 6.0392 667.52 
24.786 6.129 667.46 
24.784 6.2202 667.4 
24.782 6.3103 667.34 
24.78 6.4006 667.29 
24.778 6.491 667.23 
24.776 6.5813 667.18 
24.775 6.6724 667.16 
24.773 6.7627 667.12 
24.772 6.8527 667.07 
24.768 6.9431 666.99 
24.767 7.0332 666.95 
24.765 7.1241 666.9 
24.764 7.2152 666.88 
24.762 7.3064 666.82 
24.76 7.3968 666.76 
24.758 7.4878 666.71 
24.757 7.578 666.67 
24.755 7.6684 666.63 
24.754 7.758 666.6 
24.753 7.8486 666.55 
24.751 7.9385 666.52 
24.75 8.0287 666.47 
24.748 8.1187 666.44 
24.747 8.2104 666.4 
24.745 8.3012 666.35 
24.743 8.391 666.3 
24.742 8.4824 666.26 
24.741 8.5724 666.24 
24.739 8.6624 666.2 
24.738 8.7521 666.17 
24.737 8.842 666.13 
24.736 8.933 666.11 
24.735 9.0242 666.07 
24.734 9.1159 666.06 
24.732 9.2055 666.01 
24.731 9.2961 665.98 
24.73 9.3857 665.95 
24.728 9.4751 665.91 
24.728 9.5661 665.9 
24.727 9.6571 665.86 
24.726 9.7476 665.84 
24.724 9.8383 665.8 
24.723 9.9289 665.77 
24.721 10.018 665.72 
24.721 10.109 665.69 
24.72 10.2 665.68 
24.719 10.291 665.64 
24.718 10.381 665.62 
24.717 10.47 665.59 
24.715 10.561 665.55 
24.715 10.652 665.54 
24.714 10.743 665.53 
24.714 10.832 665.52 
24.712 10.921 665.46 
24.711 11.011 665.42 
24.71 11.103 665.41 
24.71 11.194 665.4 
24.709 11.285 665.39 
24.709 11.375 665.37 
24.708 11.465 665.34 
24.707 11.557 665.33 
24.706 11.648 665.31 
24.705 11.737 665.28 
24.704 11.827 665.25 
24.703 11.917 665.23 
24.703 12.007 665.22 
24.703 12.099 665.21 
24.702 12.189 665.2 
24.702 12.28 665.18 
24.701 12.37 665.16 
24.7 12.461 665.15 
24.7 12.551 665.14 
24.699 12.641 665.12 
24.698 12.732 665.1 
24.697 12.823 665.07 
24.697 12.913 665.05 
24.697 13.004 665.05 
24.696 13.095 665.04 
24.697 13.185 665.04 
24.696 13.274 665.03 
24.695 13.364 665.02 
24.695 13.455 665 
24.694 13.546 664.98 
24.694 13.636 664.97 
24.693 13.727 664.96 
24.693 13.818 664.95 
24.694 13.909 664.96 
24.694 13.998 664.98 
24.694 14.088 664.98 
24.693 14.179 664.96 
24.693 14.272 664.95 
24.692 14.364 664.93 
24.692 14.454 664.93 
24.692 14.543 664.93 
24.692 14.633 664.93 
24.693 14.724 664.94 
24.693 14.816 664.94 
24.692 14.907 664.93 
24.692 14.997 664.93 
24.693 15.086 664.94 
24.693 15.177 664.94 
24.692 15.268 664.93 
24.692 15.36 664.92 
24.692 15.45 664.93 
24.692 15.538 664.93 
24.692 15.627 664.93 
24.692 15.717 664.92 
24.692 15.81 664.91 
24.692 15.903 664.91 
24.691 15.994 664.9 
24.691 16.083 664.9 
24.691 16.172 664.9 
24.691 16.264 664.9 
24.691 16.356 664.88 
24.69 16.446 664.87 
24.69 16.536 664.88 
24.691 16.626 664.9 
24.692 16.717 664.92 
24.692 16.809 664.92 
24.692 16.901 664.93 
24.692 16.992 664.93 
24.692 17.082 664.93 
24.692 17.173 664.93 
24.693 17.264 664.94 
24.693 17.354 664.96 
24.694 17.445 664.97 
24.694 17.536 664.98 
24.694 17.627 664.98 
24.694 17.717 664.98 
24.695 17.808 664.99 
24.695 17.9 664.99 
24.695 17.991 665 
24.695 18.082 665.01 
24.696 18.172 665.03 
24.697 18.264 665.05 
24.697 18.356 665.06 
24.698 18.447 665.07 
24.698 18.537 665.09 
24.699 18.628 665.11 
24.7 18.719 665.12 
24.7 18.81 665.13 
24.7 18.902 665.13 
24.7 18.993 665.14 
24.701 19.085 665.15 
24.701 19.176 665.16 
24.702 19.267 665.18 
24.703 19.36 665.22 
24.704 19.45 665.24 
24.705 19.541 665.26 
24.705 19.632 665.26 
24.706 19.723 665.29 
24.706 19.814 665.31 
24.707 19.906 665.33 
24.708 19.998 665.36 
24.709 20.09 665.39 
24.71 20.181 665.4 
24.71 20.272 665.41 
24.711 20.363 665.43 
24.712 20.454 665.45 
24.713 20.546 665.49 
24.714 20.637 665.51 
24.715 20.729 665.53 
24.716 20.82 665.56 
24.717 20.912 665.59 
24.718 21.004 665.61 
24.719 21.096 665.64 
24.72 21.188 665.66 
24.721 21.28 665.7 
24.722 21.372 665.73 
24.723 21.464 665.76 
24.724 21.555 665.78 
24.725 21.646 665.8 
24.726 21.737 665.83 
24.727 21.83 665.85 
24.728 21.923 665.9 
24.73 22.015 665.93 
24.731 22.107 665.96 
24.731 22.198 665.98 
24.733 22.289 666.02 
24.734 22.381 666.06 
24.736 22.473 666.09 
24.737 22.566 666.13 
24.738 22.658 666.17 
24.74 22.751 666.22 
24.742 22.842 666.26 
24.744 22.935 666.31 
24.745 23.026 666.33 
24.745 23.117 666.34 
24.746 23.208 666.37 
24.748 23.302 666.42 
24.749 23.395 666.46 
24.751 23.488 666.52 
24.753 23.58 666.55 
24.754 23.673 666.59 
24.756 23.766 666.64 
24.757 23.858 666.68 
24.759 23.95 666.73 
24.761 24.042 666.77 
24.763 24.134 666.83 
24.765 24.228 666.88 
24.766 24.321 666.92 
24.768 24.413 666.96 
24.769 24.505 667 
24.771 24.599 667.05 
24.773 24.692 667.11 
24.776 24.786 667.18 
24.778 24.878 667.23 
24.78 24.971 667.28 
24.781 25.063 667.33 
24.783 25.156 667.37 
24.785 25.249 667.43 
24.787 25.343 667.48 
24.789 25.435 667.52 
24.79 25.529 667.57 
24.792 25.622 667.62 
24.795 25.716 667.7 
24.798 25.809 667.77 
24.8 25.903 667.81 
24.801 25.995 667.87 
24.804 26.089 667.93 
24.806 26.182 668 
24.809 26.275 668.07 
24.811 26.37 668.13 
24.813 26.463 668.19 
24.816 26.558 668.25 
24.818 26.651 668.3 
24.82 26.744 668.36 
24.823 26.838 668.44 
24.825 26.932 668.5 
24.827 27.025 668.56 
24.83 27.12 668.63 
24.833 27.213 668.7 
24.836 27.308 668.79 
