ply
format ascii 1.0
comment Author: CloudCompare (TELECOM PARISTECH/EDF R&D)
obj_info Generated by CloudCompare!
element vertex 2108
property float x
property float y
property float z
end_header
-2.7907 8.0136 665.28 
-2.7905 8.1027 665.24 
-2.7903 8.194 665.18 
-2.7901 8.2857 665.14 
-2.7898 8.3745 665.07 
-2.7896 8.4642 665.01 
-2.7894 8.5546 664.97 
-2.7893 8.6448 664.94 
-2.7891 8.7343 664.89 
-2.7888 8.8247 664.84 
-2.7886 8.915 664.78 
-2.7884 9.0051 664.74 
-2.7883 9.095 664.7 
-2.7882 9.1853 664.68 
-2.788 9.2752 664.64 
-2.7877 9.3652 664.57 
-2.7875 9.4545 664.51 
-2.7873 9.5443 664.48 
-2.7873 9.6353 664.46 
-2.7871 9.7258 664.42 
-2.7869 9.8158 664.37 
-2.7867 9.9057 664.33 
-2.7867 9.9963 664.32 
-2.7865 10.086 664.28 
-2.7863 10.175 664.23 
-2.7861 10.265 664.18 
-2.7861 10.356 664.17 
-2.7859 10.446 664.13 
-2.7857 10.536 664.09 
-2.7856 10.627 664.06 
-2.7855 10.717 664.04 
-2.7854 10.807 664.03 
-2.7852 10.897 663.98 
-2.7851 10.986 663.95 
-2.785 11.077 663.92 
-2.7848 11.167 663.89 
-2.7848 11.257 663.87 
-2.7847 11.346 663.85 
-2.7846 11.437 663.82 
-2.7844 11.526 663.78 
-2.7843 11.616 663.76 
-2.7842 11.706 663.73 
-2.7841 11.796 663.72 
-2.784 11.887 663.69 
-2.7839 11.976 663.66 
-2.7837 12.067 663.61 
-2.7836 12.157 663.6 
-2.7836 12.247 663.59 
-2.7835 12.337 663.56 
-2.7834 12.427 663.54 
-2.7833 12.517 663.52 
-2.7833 12.608 663.53 
-2.7832 12.698 663.51 
-2.7832 12.789 663.49 
-2.7831 12.878 663.47 
-2.783 12.969 663.46 
-2.7829 13.06 663.44 
-2.783 13.15 663.44 
-2.7829 13.24 663.43 
-2.7828 13.331 663.42 
-2.7827 13.421 663.38 
-2.7826 13.511 663.36 
-2.7825 13.601 663.34 
-2.7825 13.69 663.33 
-2.7824 13.78 663.32 
-2.7824 13.87 663.31 
-2.7824 13.961 663.3 
-2.7823 14.051 663.29 
-2.7822 14.143 663.27 
-2.7822 14.232 663.27 
-2.7823 14.323 663.28 
-2.7822 14.413 663.27 
-2.7822 14.504 663.26 
-2.7822 14.594 663.26 
-2.7822 14.683 663.25 
-2.7821 14.774 663.25 
-2.7821 14.865 663.25 
-2.782 14.955 663.22 
-2.782 15.045 663.22 
-2.7821 15.136 663.24 
-2.7821 15.226 663.23 
-2.782 15.317 663.22 
-2.782 15.408 663.22 
-2.782 15.499 663.23 
-2.782 15.589 663.22 
-2.782 15.678 663.21 
-2.782 15.769 663.21 
-2.782 15.859 663.22 
-2.782 15.95 663.22 
-2.782 16.041 663.22 
-2.782 16.131 663.21 
-2.782 16.222 663.23 
-2.782 16.313 663.23 
-2.7821 16.403 663.24 
-2.7821 16.493 663.25 
-2.7823 16.584 663.28 
-2.7823 16.674 663.28 
-2.7823 16.766 663.28 
-2.7822 16.857 663.27 
-2.7822 16.948 663.28 
-2.7823 17.038 663.29 
-2.7823 17.128 663.31 
-2.7823 17.219 663.31 
-2.7824 17.309 663.33 
-2.7825 17.4 663.35 
-2.7826 17.493 663.36 
-2.7825 17.583 663.35 
-2.7825 17.674 663.35 
-2.7826 17.764 663.37 
-2.7827 17.854 663.39 
-2.7827 17.945 663.4 
-2.7828 18.037 663.42 
-2.7829 18.128 663.44 
-2.7829 18.219 663.44 
-2.783 18.309 663.46 
-2.7831 18.4 663.48 
-2.7832 18.491 663.51 
-2.7833 18.582 663.53 
-2.7833 18.673 663.54 
-2.7833 18.763 663.54 
-2.7834 18.856 663.56 
-2.7835 18.947 663.59 
-2.7836 19.038 663.62 
-2.7837 19.128 663.63 
-2.7838 19.22 663.65 
-2.7838 19.311 663.67 
-2.7839 19.402 663.69 
-2.7841 19.493 663.72 
-2.7842 19.585 663.75 
-2.7843 19.676 663.78 
-2.7844 19.768 663.8 
-2.7845 19.858 663.83 
-2.7847 19.95 663.87 
-2.7848 20.041 663.89 
-2.7849 20.133 663.92 
-2.785 20.225 663.94 
-2.7851 20.316 663.97 
-2.7853 20.408 664.02 
-2.7854 20.5 664.05 
-2.7855 20.59 664.06 
-2.7856 20.681 664.08 
-2.7857 20.774 664.13 
-2.7859 20.865 664.17 
-2.7861 20.957 664.21 
-2.7862 21.049 664.24 
-2.7864 21.14 664.29 
-2.7865 21.232 664.31 
-2.7867 21.324 664.35 
-2.7868 21.416 664.37 
-2.7869 21.508 664.41 
-2.7871 21.599 664.45 
-2.7873 21.692 664.5 
-2.7875 21.783 664.54 
-2.7877 21.876 664.6 
-2.7879 21.968 664.64 
-2.788 22.06 664.67 
-2.7882 22.153 664.73 
-2.7885 22.245 664.78 
-2.7887 22.338 664.84 
-2.7888 22.43 664.87 
-2.7889 22.521 664.89 
-2.7891 22.614 664.93 
-2.7894 22.706 665.01 
-2.7896 22.798 665.05 
-2.7898 22.891 665.09 
-2.79 22.983 665.14 
-2.7902 23.075 665.2 
-2.7905 23.168 665.26 
-2.7907 23.261 665.31 
-2.7909 23.353 665.35 
-2.7912 23.447 665.43 
-2.7914 23.538 665.48 
-2.7916 23.632 665.53 
-2.7918 23.725 665.59 
-2.7921 23.818 665.65 
-2.7923 23.91 665.7 
-2.7926 24.003 665.76 
-2.7928 24.097 665.82 
-2.7931 24.189 665.89 
-2.7933 24.282 665.94 
-2.7936 24.376 666.02 
-2.7939 24.469 666.09 
-2.7943 24.563 666.18 
-2.7946 24.657 666.24 
-2.7949 24.75 666.31 
-2.7951 24.844 666.37 
-2.7955 24.938 666.46 
-2.7958 25.032 666.53 
-2.796 25.125 666.59 
-2.7963 25.217 666.66 
-2.7967 25.311 666.75 
-2.7971 25.407 666.85 
-2.7974 25.501 666.92 
-2.7977 25.593 666.99 
-2.7982 25.688 667.1 
-2.7986 25.783 667.2 
-2.7989 25.877 667.27 
-2.7992 25.971 667.35 
-2.7996 26.066 667.44 
-2.8 26.161 667.53 
-2.8004 26.255 667.63 
-2.8008 26.351 667.73 
-2.8012 26.444 667.81 
-2.8017 26.54 667.93 
-2.802 26.635 668.02 
-2.8024 26.729 668.11 
-2.8029 26.825 668.22 
-2.8035 26.922 668.37 
-2.804 27.018 668.49 
-2.8044 27.115 668.59 
-2.8048 27.211 668.7 
-2.8053 27.305 668.8 
-2.8058 27.401 668.92 
-2.8064 27.498 669.07 
-2.807 27.596 669.21 
-2.8075 27.692 669.33 
-2.808 27.788 669.45 
-2.8086 27.885 669.58 
-2.8091 27.98 669.7 
-2.8097 28.078 669.85 
-2.8103 28.176 669.99 
-2.8109 28.274 670.13 
-2.8115 28.372 670.28 
-2.8123 28.471 670.46 
-2.8129 28.567 670.6 
-2.8135 28.665 670.75 
-2.8142 28.763 670.91 
-2.8151 28.863 671.14 
-2.816 28.964 671.34 
-2.8167 29.065 671.53 
-2.8175 29.164 671.71 
-2.8184 29.266 671.93 
-2.8193 29.368 672.15 
-2.8204 29.468 672.4 
-2.8214 29.571 672.65 
-2.8227 29.676 672.94 
-2.8237 29.779 673.19 
-2.825 29.882 673.48 
-2.826 29.983 673.71 
-2.7366 1.2271 674.3 
-2.7357 1.3157 674.07 
-2.7338 1.4089 673.59 
-2.7329 1.5006 673.37 
-2.7313 1.5923 672.99 
-2.7304 1.6803 672.75 
-2.7293 1.7733 672.5 
-2.7286 1.8636 672.32 
-2.7277 1.9556 672.09 
-2.7268 2.0459 671.88 
-2.7263 2.1362 671.75 
-2.7257 2.2262 671.59 
-2.7248 2.3178 671.39 
-2.724 2.4088 671.18 
-2.7235 2.5002 671.05 
-2.7227 2.5905 670.86 
-2.7221 2.6811 670.71 
-2.7214 2.7722 670.54 
-2.7209 2.8624 670.42 
-2.7204 2.954 670.29 
-2.7198 3.0454 670.14 
-2.7191 3.1367 669.97 
-2.7185 3.2273 669.84 
-2.718 3.3167 669.72 
-2.7175 3.408 669.59 
-2.717 3.4971 669.46 
-2.7165 3.588 669.33 
-2.7161 3.6783 669.24 
-2.7155 3.7695 669.1 
-2.715 3.8593 668.98 
-2.7147 3.9508 668.89 
-2.7142 4.0418 668.76 
-2.7136 4.1329 668.63 
-2.7132 4.2225 668.54 
-2.7129 4.313 668.44 
-2.7124 4.4032 668.34 
-2.712 4.4935 668.23 
-2.7116 4.5849 668.13 
-2.7112 4.6749 668.04 
-2.7109 4.7643 667.96 
-2.7105 4.8554 667.85 
-2.7102 4.9464 667.78 
-2.7097 5.0366 667.66 
-2.7094 5.1282 667.59 
-2.709 5.2185 667.49 
-2.7085 5.3079 667.38 
-2.7083 5.3978 667.31 
-2.7079 5.4879 667.23 
-2.7076 5.5778 667.16 
-2.7074 5.6688 667.1 
-2.707 5.7596 667 
-2.7067 5.8496 666.92 
-2.7065 5.9402 666.87 
-2.7061 6.0302 666.78 
-2.7057 6.121 666.69 
-2.7054 6.2114 666.62 
-2.7051 6.3012 666.53 
-2.7048 6.3917 666.47 
-2.7045 6.4814 666.39 
-2.7043 6.5726 666.33 
-2.704 6.6624 666.27 
-2.7036 6.752 666.16 
-2.7033 6.8415 666.09 
-2.703 6.9329 666.03 
-2.7029 7.0234 666 
-2.7027 7.1133 665.95 
-2.7025 7.2031 665.89 
-2.7022 7.2942 665.83 
-2.7019 7.3848 665.75 
-2.7016 7.4736 665.68 
-2.7014 7.5638 665.63 
-2.7012 7.654 665.58 
-2.701 7.7437 665.54 
-2.7008 7.8347 665.48 
-2.7005 7.9238 665.41 
-2.7003 8.0132 665.35 
-2.7 8.1042 665.29 
-2.6998 8.1938 665.24 
-2.6997 8.2855 665.2 
-2.6994 8.3754 665.15 
-2.6991 8.4659 665.08 
-2.6989 8.5554 665.03 
-2.6989 8.6453 665.01 
-2.6987 8.7353 664.98 
-2.6985 8.8254 664.93 
-2.6983 8.9156 664.86 
-2.6981 9.0059 664.83 
-2.698 9.0961 664.79 
-2.6979 9.1855 664.76 
-2.6977 9.2764 664.72 
-2.6974 9.3649 664.64 
-2.6971 9.4559 664.58 
-2.6969 9.546 664.53 
-2.6968 9.6364 664.51 
-2.6967 9.7265 664.48 
-2.6965 9.8171 664.43 
-2.6964 9.9069 664.4 
-2.6963 9.9965 664.39 
-2.6962 10.086 664.35 
-2.696 10.175 664.3 
-2.6958 10.266 664.25 
-2.6958 10.356 664.24 
-2.6956 10.447 664.22 
-2.6955 10.537 664.18 
-2.6954 10.627 664.15 
-2.6952 10.717 664.1 
-2.6951 10.807 664.08 
-2.695 10.897 664.05 
-2.6948 10.987 664.01 
-2.6947 11.078 663.99 
-2.6946 11.167 663.96 
-2.6944 11.257 663.92 
-2.6944 11.348 663.91 
-2.6942 11.438 663.88 
-2.6942 11.528 663.86 
-2.6941 11.618 663.83 
-2.694 11.707 663.8 
-2.6939 11.798 663.79 
-2.6938 11.888 663.76 
-2.6936 11.979 663.73 
-2.6935 12.07 663.71 
-2.6935 12.159 663.7 
-2.6934 12.25 663.66 
-2.6933 12.339 663.64 
-2.6931 12.429 663.61 
-2.6931 12.518 663.6 
-2.6931 12.609 663.59 
-2.693 12.7 663.57 
-2.6929 12.79 663.55 
-2.6929 12.879 663.55 
-2.6928 12.97 663.53 
-2.6927 13.06 663.49 
-2.6926 13.151 663.49 
-2.6927 13.242 663.49 
-2.6926 13.332 663.48 
-2.6925 13.422 663.45 
-2.6924 13.512 663.42 
-2.6923 13.601 663.41 
-2.6924 13.692 663.41 
-2.6923 13.782 663.39 
-2.6922 13.872 663.38 
-2.6922 13.963 663.39 
-2.6921 14.053 663.37 
-2.6921 14.144 663.37 
-2.6921 14.234 663.35 
-2.6921 14.324 663.35 
-2.692 14.413 663.33 
-2.692 14.504 663.32 
-2.6919 14.595 663.31 
-2.6919 14.685 663.32 
-2.6919 14.775 663.31 
-2.6919 14.866 663.31 
-2.6918 14.957 663.3 
-2.6918 15.047 663.29 
-2.6918 15.137 663.29 
-2.6919 15.228 663.31 
-2.6919 15.318 663.3 
-2.6918 15.41 663.3 
-2.6919 15.5 663.31 
-2.6918 15.59 663.29 
-2.6918 15.68 663.29 
-2.6918 15.771 663.29 
-2.6918 15.861 663.29 
-2.6918 15.952 663.29 
-2.6918 16.043 663.3 
-2.6918 16.132 663.28 
-2.6918 16.223 663.28 
-2.6918 16.314 663.3 
-2.6919 16.405 663.31 
-2.6919 16.494 663.32 
-2.692 16.586 663.33 
-2.692 16.677 663.34 
-2.6921 16.768 663.36 
-2.692 16.858 663.33 
-2.692 16.95 663.34 
-2.692 17.04 663.35 
-2.6922 17.131 663.38 
-2.6922 17.22 663.38 
-2.6922 17.311 663.39 
-2.6923 17.402 663.41 
-2.6924 17.493 663.42 
-2.6923 17.584 663.43 
-2.6923 17.675 663.42 
-2.6924 17.766 663.45 
-2.6925 17.857 663.47 
-2.6925 17.947 663.46 
-2.6926 18.039 663.5 
-2.6927 18.13 663.51 
-2.6927 18.22 663.51 
-2.6928 18.311 663.54 
-2.6929 18.402 663.55 
-2.693 18.493 663.59 
-2.6931 18.584 663.6 
-2.6932 18.676 663.63 
-2.6932 18.766 663.63 
-2.6932 18.858 663.65 
-2.6933 18.95 663.67 
-2.6934 19.04 663.69 
-2.6935 19.131 663.71 
-2.6935 19.221 663.71 
-2.6936 19.312 663.74 
-2.6937 19.405 663.77 
-2.6939 19.496 663.81 
-2.694 19.587 663.83 
-2.6941 19.678 663.86 
-2.6942 19.77 663.89 
-2.6943 19.861 663.92 
-2.6945 19.953 663.96 
-2.6946 20.045 663.99 
-2.6947 20.136 664 
-2.6947 20.227 664.02 
-2.6949 20.319 664.07 
-2.695 20.411 664.09 
-2.6951 20.501 664.11 
-2.6952 20.591 664.14 
-2.6953 20.683 664.16 
-2.6954 20.775 664.2 
-2.6956 20.867 664.23 
-2.6957 20.959 664.27 
-2.6959 21.051 664.31 
-2.6961 21.142 664.34 
-2.6962 21.233 664.39 
-2.6964 21.326 664.42 
-2.6964 21.418 664.44 
-2.6966 21.509 664.49 
-2.6968 21.602 664.54 
-2.697 21.694 664.58 
-2.6972 21.786 664.63 
-2.6974 21.878 664.67 
-2.6976 21.971 664.73 
-2.6977 22.063 664.77 
-2.6979 22.155 664.8 
-2.6982 22.248 664.87 
-2.6983 22.34 664.9 
-2.6985 22.432 664.95 
-2.6986 22.524 664.99 
-2.6989 22.617 665.05 
-2.6991 22.709 665.09 
-2.6992 22.802 665.13 
-2.6994 22.893 665.18 
-2.6996 22.985 665.23 
-2.6998 23.077 665.27 
-2.7 23.171 665.32 
-2.7003 23.264 665.39 
-2.7005 23.356 665.44 
-2.7008 23.45 665.52 
-2.701 23.542 665.57 
-2.7011 23.634 665.61 
-2.7014 23.728 665.67 
-2.7016 23.821 665.73 
-2.7019 23.913 665.8 
-2.7021 24.006 665.85 
-2.7023 24.098 665.9 
-2.7026 24.192 665.97 
-2.7029 24.286 666.04 
-2.7032 24.381 666.13 
-2.7035 24.473 666.2 
-2.7039 24.567 666.28 
-2.7042 24.661 666.36 
-2.7045 24.754 666.43 
-2.7047 24.847 666.48 
-2.705 24.942 666.57 
-2.7052 25.035 666.61 
-2.7054 25.127 666.66 
-2.7058 25.221 666.76 
-2.7062 25.316 666.85 
-2.7065 25.411 666.93 
-2.7068 25.504 667 
-2.7072 25.597 667.09 
-2.7075 25.69 667.17 
-2.7079 25.785 667.27 
-2.7083 25.881 667.38 
-2.7086 25.975 667.45 
-2.709 26.07 667.55 
-2.7094 26.166 667.64 
-2.7098 26.261 667.74 
-2.7102 26.356 667.85 
-2.7106 26.451 667.95 
-2.711 26.544 668.04 
-2.7114 26.639 668.13 
-2.7118 26.735 668.24 
-2.7122 26.829 668.35 
-2.7128 26.926 668.47 
-2.7132 27.023 668.58 
-2.7136 27.119 668.7 
-2.7141 27.215 668.81 
-2.7145 27.31 668.92 
-2.7151 27.407 669.04 
-2.7155 27.503 669.17 
-2.7161 27.602 669.31 
-2.7167 27.697 669.44 
-2.7172 27.793 669.57 
-2.7179 27.89 669.73 
-2.7184 27.988 669.87 
-2.719 28.086 670.01 
-2.7195 28.182 670.14 
-2.72 28.28 670.28 
-2.7206 28.376 670.41 
-2.7213 28.476 670.58 
-2.7221 28.575 670.78 
-2.7227 28.672 670.92 
-2.7233 28.77 671.08 
-2.7243 28.872 671.31 
-2.7251 28.971 671.51 
-2.7259 29.073 671.71 
-2.7267 29.173 671.91 
-2.7274 29.274 672.1 
-2.7284 29.375 672.33 
-2.7295 29.479 672.61 
-2.7306 29.579 672.86 
-2.7317 29.686 673.16 
-2.7329 29.789 673.45 
-2.7341 29.895 673.74 
-2.6441 1.4112 674.15 
-2.6418 1.5011 673.58 
-2.6405 1.5922 673.25 
-2.6393 1.6806 672.92 
-2.6384 1.7718 672.69 
-2.6378 1.8647 672.56 
-2.6369 1.9559 672.31 
-2.6361 2.0477 672.11 
-2.6354 2.1378 671.93 
-2.6347 2.2284 671.75 
-2.634 2.3173 671.57 
-2.6332 2.4093 671.36 
-2.6325 2.4999 671.2 
-2.6319 2.5923 671.04 
-2.6313 2.6832 670.9 
-2.6306 2.7734 670.71 
-2.6301 2.8635 670.57 
-2.6295 2.9543 670.43 
-2.6288 3.0462 670.27 
-2.6283 3.1361 670.12 
-2.6276 3.2273 669.95 
-2.6272 3.3187 669.84 
-2.6266 3.409 669.7 
-2.6262 3.4987 669.59 
-2.6258 3.5889 669.48 
-2.6253 3.6796 669.37 
-2.6248 3.7697 669.23 
-2.6242 3.8615 669.1 
-2.6238 3.9513 668.98 
-2.6234 4.0429 668.88 
-2.6229 4.1318 668.76 
-2.6225 4.2236 668.64 
-2.6221 4.3128 668.54 
-2.6217 4.4044 668.45 
-2.6212 4.4948 668.32 
-2.6209 4.5853 668.24 
-2.6204 4.6755 668.12 
-2.6201 4.7658 668.05 
-2.6198 4.857 667.96 
-2.6194 4.9478 667.86 
-2.6191 5.0375 667.79 
-2.6187 5.1289 667.69 
-2.6183 5.2192 667.59 
-2.6179 5.3087 667.48 
-2.6176 5.3986 667.41 
-2.6173 5.4897 667.34 
-2.617 5.5798 667.26 
-2.6168 5.6694 667.19 
-2.6163 5.7602 667.08 
-2.6161 5.8512 667.02 
-2.6158 5.9414 666.94 
-2.6154 6.0307 666.85 
-2.6151 6.1217 666.78 
-2.6149 6.2129 666.72 
-2.6146 6.3022 666.65 
-2.6142 6.3923 666.55 
-2.6139 6.4826 666.48 
-2.6138 6.5736 666.43 
-2.6134 6.6627 666.35 
-2.6131 6.7535 666.27 
-2.6128 6.8437 666.19 
-2.6126 6.9338 666.14 
-2.6125 7.0248 666.1 
-2.6122 7.1147 666.03 
-2.6119 7.2044 665.96 
-2.6117 7.2949 665.9 
-2.6114 7.3857 665.84 
-2.6112 7.4742 665.78 
-2.611 7.5639 665.72 
-2.6108 7.6551 665.68 
-2.6106 7.7445 665.62 
-2.6103 7.8354 665.56 
-2.61 7.9257 665.49 
-2.6099 8.0152 665.44 
-2.6096 8.1055 665.38 
-2.6094 8.1954 665.32 
-2.6092 8.2861 665.27 
-2.609 8.3755 665.21 
-2.6088 8.4666 665.17 
-2.6086 8.5569 665.12 
-2.6084 8.6461 665.06 
-2.6083 8.7358 665.04 
-2.6081 8.8262 665 
-2.608 8.9164 664.96 
-2.6078 9.0065 664.91 
-2.6076 9.097 664.88 
-2.6075 9.1863 664.83 
-2.6073 9.2771 664.78 
-2.607 9.3655 664.72 
-2.6069 9.4567 664.68 
-2.6066 9.5469 664.61 
-2.6065 9.6376 664.59 
-2.6064 9.7281 664.56 
-2.6062 9.8179 664.51 
-2.6061 9.9084 664.48 
-2.606 9.9978 664.46 
-2.6059 10.087 664.43 
-2.6057 10.177 664.37 
-2.6056 10.267 664.35 
-2.6055 10.358 664.32 
-2.6053 10.448 664.29 
-2.6052 10.538 664.25 
-2.605 10.628 664.22 
-2.605 10.718 664.19 
-2.6048 10.808 664.16 
-2.6046 10.898 664.11 
-2.6045 10.988 664.07 
-2.6044 11.078 664.07 
-2.6043 11.169 664.03 
-2.6041 11.258 663.99 
-2.6041 11.35 663.99 
-2.604 11.439 663.97 
-2.6039 11.53 663.94 
-2.6039 11.619 663.92 
-2.6038 11.71 663.89 
-2.6037 11.799 663.87 
-2.6035 11.89 663.83 
-2.6034 11.981 663.79 
-2.6033 12.071 663.79 
-2.6033 12.16 663.78 
-2.6032 12.251 663.75 
-2.6031 12.34 663.71 
-2.6029 12.43 663.69 
-2.6028 12.52 663.66 
-2.6027 12.611 663.64 
-2.6027 12.701 663.63 
-2.6027 12.791 663.64 
-2.6027 12.882 663.62 
-2.6026 12.972 663.6 
-2.6025 13.062 663.58 
-2.6024 13.152 663.56 
-2.6024 13.244 663.56 
-2.6024 13.333 663.54 
-2.6023 13.422 663.52 
-2.6022 13.513 663.51 
-2.6022 13.603 663.49 
-2.6022 13.694 663.49 
-2.6022 13.786 663.5 
-2.6021 13.876 663.47 
-2.602 13.965 663.45 
-2.602 14.056 663.44 
-2.602 14.145 663.45 
-2.6019 14.235 663.43 
-2.6019 14.325 663.42 
-2.6018 14.415 663.4 
-2.6018 14.506 663.4 
-2.6018 14.597 663.39 
-2.6017 14.687 663.38 
-2.6017 14.777 663.39 
-2.6017 14.867 663.38 
-2.6017 14.958 663.39 
-2.6017 15.048 663.37 
-2.6017 15.139 663.38 
-2.6017 15.23 663.38 
-2.6017 15.32 663.38 
-2.6016 15.411 663.35 
-2.6016 15.501 663.36 
-2.6016 15.592 663.37 
-2.6016 15.682 663.35 
-2.6016 15.773 663.35 
-2.6016 15.863 663.36 
-2.6016 15.953 663.36 
-2.6017 16.044 663.37 
-2.6016 16.134 663.35 
-2.6017 16.225 663.37 
-2.6016 16.315 663.36 
-2.6017 16.407 663.39 
-2.6017 16.497 663.39 
-2.6017 16.587 663.39 
-2.6018 16.679 663.41 
-2.6019 16.77 663.43 
-2.6018 16.86 663.42 
-2.6019 16.952 663.43 
-2.6019 17.042 663.43 
-2.6019 17.131 663.44 
-2.602 17.222 663.46 
-2.6021 17.312 663.48 
-2.6021 17.403 663.48 
-2.6021 17.494 663.49 
-2.6021 17.586 663.49 
-2.6022 17.678 663.51 
-2.6022 17.768 663.51 
-2.6023 17.859 663.54 
-2.6024 17.95 663.56 
-2.6024 18.041 663.56 
-2.6024 18.132 663.58 
-2.6025 18.222 663.58 
-2.6025 18.313 663.6 
-2.6027 18.403 663.63 
-2.6027 18.495 663.64 
-2.6028 18.586 663.68 
-2.6028 18.677 663.68 
-2.6029 18.769 663.7 
-2.603 18.86 663.72 
-2.6031 18.951 663.75 
-2.6032 19.043 663.77 
-2.6033 19.133 663.8 
-2.6034 19.223 663.81 
-2.6034 19.315 663.83 
-2.6035 19.406 663.85 
-2.6036 19.499 663.88 
-2.6037 19.59 663.91 
-2.6039 19.681 663.95 
-2.6039 19.772 663.96 
-2.604 19.863 663.98 
-2.6041 19.955 664.02 
-2.6043 20.048 664.06 
-2.6044 20.139 664.08 
-2.6044 20.229 664.09 
-2.6046 20.321 664.13 
-2.6047 20.411 664.15 
-2.6048 20.502 664.18 
-2.6049 20.593 664.2 
-2.605 20.685 664.24 
-2.6051 20.778 664.27 
-2.6052 20.869 664.3 
-2.6054 20.961 664.33 
-2.6055 21.052 664.36 
-2.6057 21.144 664.42 
-2.6059 21.237 664.47 
-2.606 21.327 664.49 
-2.6062 21.421 664.54 
-2.6063 21.513 664.58 
-2.6065 21.606 664.62 
-2.6067 21.698 664.67 
-2.6069 21.789 664.71 
-2.607 21.881 664.75 
-2.6072 21.973 664.8 
-2.6073 22.065 664.83 
-2.6075 22.158 664.88 
-2.6076 22.25 664.91 
-2.6079 22.342 664.97 
-2.6081 22.435 665.03 
-2.6083 22.528 665.08 
-2.6085 22.62 665.13 
-2.6087 22.712 665.18 
-2.6089 22.804 665.23 
-2.609 22.896 665.26 
-2.6092 22.987 665.32 
-2.6094 23.08 665.37 
-2.6096 23.173 665.41 
-2.6098 23.266 665.47 
-2.6101 23.359 665.53 
-2.6103 23.452 665.59 
-2.6105 23.544 665.65 
-2.6108 23.637 665.71 
-2.611 23.731 665.78 
-2.6112 23.823 665.82 
-2.6114 23.916 665.88 
-2.6116 24.009 665.94 
-2.6119 24.102 666 
-2.6121 24.195 666.06 
-2.6124 24.289 666.14 
-2.6127 24.383 666.21 
-2.613 24.477 666.3 
-2.6133 24.571 666.37 
-2.6136 24.664 666.44 
-2.6138 24.757 666.49 
-2.6141 24.85 666.58 
-2.6144 24.945 666.66 
-2.6147 25.038 666.73 
-2.615 25.13 666.78 
-2.6153 25.224 666.87 
-2.6157 25.319 666.96 
-2.616 25.414 667.04 
-2.6162 25.508 667.1 
-2.6166 25.602 667.19 
-2.6169 25.695 667.29 
-2.6173 25.79 667.38 
-2.6176 25.884 667.46 
-2.6179 25.98 667.55 
-2.6183 26.075 667.65 
-2.6187 26.171 667.75 
-2.6191 26.266 667.86 
-2.6195 26.361 667.96 
-2.62 26.455 668.06 
-2.6203 26.548 668.14 
-2.6206 26.643 668.23 
-2.621 26.739 668.34 
-2.6215 26.835 668.44 
-2.622 26.931 668.57 
-2.6225 27.027 668.7 
-2.6229 27.124 668.82 
-2.6234 27.219 668.94 
-2.6238 27.315 669.05 
-2.6243 27.412 669.17 
-2.6248 27.508 669.29 
-2.6253 27.604 669.42 
-2.6259 27.702 669.57 
-2.6264 27.8 669.72 
-2.6269 27.897 669.84 
-2.6276 27.996 670.02 
-2.6281 28.091 670.15 
-2.6287 28.189 670.3 
-2.6293 28.287 670.45 
-2.6299 28.385 670.61 
-2.6306 28.484 670.77 
-2.6311 28.581 670.92 
-2.6319 28.679 671.1 
-2.6325 28.779 671.28 
-2.6334 28.879 671.48 
-2.6341 28.98 671.68 
-2.6349 29.08 671.87 
-2.6357 29.182 672.09 
-2.6366 29.282 672.31 
-2.6377 29.386 672.59 
-2.6385 29.486 672.79 
-2.6396 29.589 673.08 
-2.6409 29.696 673.4 
-2.6421 29.801 673.71 
-2.5511 1.5 673.89 
-2.5498 1.5914 673.53 
-2.5486 1.6803 673.21 
-2.5474 1.7725 672.9 
-2.5467 1.8636 672.71 
-2.546 1.9557 672.52 
-2.5452 2.0478 672.32 
-2.5443 2.1388 672.09 
-2.5436 2.2301 671.9 
-2.543 2.3194 671.73 
-2.542 2.4096 671.49 
-2.5415 2.5011 671.36 
-2.541 2.5929 671.2 
-2.5403 2.6834 671.04 
-2.5398 2.7738 670.88 
-2.5391 2.8644 670.71 
-2.5385 2.9555 670.55 
-2.538 3.0462 670.41 
-2.5374 3.1355 670.25 
-2.5369 3.2278 670.12 
-2.5363 3.3191 669.98 
-2.5358 3.4088 669.83 
-2.5353 3.5007 669.72 
-2.5348 3.5903 669.58 
-2.5344 3.6807 669.47 
-2.5339 3.7704 669.33 
-2.5335 3.8615 669.23 
-2.533 3.952 669.11 
-2.5326 4.0424 668.99 
-2.5321 4.1338 668.88 
-2.5317 4.2244 668.75 
-2.5313 4.3143 668.66 
-2.531 4.4055 668.57 
-2.5305 4.4953 668.45 
-2.5301 4.5866 668.33 
-2.5297 4.677 668.24 
-2.5294 4.7667 668.16 
-2.5291 4.8576 668.07 
-2.5287 4.9483 667.98 
-2.5283 5.0393 667.87 
-2.528 5.1287 667.78 
-2.5276 5.2194 667.68 
-2.5273 5.3092 667.59 
-2.527 5.399 667.53 
-2.5267 5.4899 667.45 
-2.5264 5.5807 667.37 
-2.5261 5.6703 667.27 
-2.5257 5.7617 667.19 
-2.5255 5.852 667.12 
-2.5252 5.9418 667.04 
-2.5248 6.0315 666.95 
-2.5246 6.1218 666.88 
-2.5244 6.2132 666.84 
-2.5241 6.3032 666.76 
-2.5237 6.393 666.65 
-2.5234 6.4834 666.58 
-2.5232 6.5733 666.52 
-2.523 6.6642 666.46 
-2.5227 6.7547 666.39 
-2.5224 6.8438 666.3 
-2.5222 6.9343 666.24 
-2.522 7.025 666.2 
-2.5217 7.1145 666.12 
-2.5215 7.2046 666.06 
-2.5211 7.2953 665.98 
-2.5209 7.3856 665.92 
-2.5207 7.4756 665.86 
-2.5205 7.5661 665.8 
-2.5203 7.6565 665.76 
-2.5201 7.7463 665.71 
-2.5199 7.8366 665.65 
-2.5196 7.9268 665.57 
-2.5194 8.0166 665.51 
-2.5192 8.1066 665.46 
-2.519 8.1964 665.41 
-2.5188 8.2868 665.37 
-2.5186 8.3768 665.31 
-2.5184 8.4689 665.27 
-2.5182 8.5581 665.22 
-2.518 8.647 665.15 
-2.5178 8.7363 665.09 
-2.5177 8.8268 665.07 
-2.5176 8.9179 665.04 
-2.5174 9.0081 664.99 
-2.5172 9.0972 664.95 
-2.5171 9.1873 664.9 
-2.5169 9.2775 664.87 
-2.5167 9.3667 664.8 
-2.5165 9.4578 664.76 
-2.5163 9.5477 664.71 
-2.5163 9.6389 664.7 
-2.5161 9.729 664.66 
-2.516 9.8185 664.63 
-2.5158 9.9091 664.57 
-2.5156 9.9992 664.53 
-2.5155 10.089 664.49 
-2.5153 10.179 664.45 
-2.5152 10.269 664.42 
-2.5151 10.36 664.39 
-2.515 10.45 664.37 
-2.5149 10.539 664.33 
-2.5148 10.629 664.3 
-2.5147 10.72 664.28 
-2.5145 10.81 664.23 
-2.5144 10.899 664.19 
-2.5142 10.989 664.15 
-2.5141 11.079 664.13 
-2.5141 11.169 664.12 
-2.5139 11.259 664.08 
-2.5138 11.351 664.05 
-2.5138 11.441 664.04 
-2.5137 11.531 664.04 
-2.5136 11.62 663.99 
-2.5135 11.711 663.98 
-2.5134 11.802 663.95 
-2.5133 11.892 663.91 
-2.5131 11.982 663.88 
-2.513 12.072 663.86 
-2.513 12.162 663.85 
-2.513 12.252 663.83 
-2.5128 12.341 663.78 
-2.5127 12.432 663.77 
-2.5126 12.522 663.75 
-2.5126 12.612 663.73 
-2.5125 12.702 663.71 
-2.5125 12.793 663.71 
-2.5124 12.883 663.67 
-2.5123 12.973 663.66 
-2.5123 13.063 663.65 
-2.5121 13.153 663.62 
-2.5122 13.245 663.63 
-2.5121 13.334 663.61 
-2.512 13.423 663.59 
-2.512 13.514 663.57 
-2.512 13.604 663.57 
-2.5119 13.696 663.57 
-2.5119 13.786 663.56 
-2.5118 13.877 663.53 
-2.5118 13.967 663.52 
-2.5117 14.056 663.51 
-2.5117 14.147 663.5 
-2.5117 14.237 663.5 
-2.5116 14.326 663.48 
-2.5117 14.417 663.49 
-2.5116 14.509 663.48 
-2.5116 14.598 663.47 
-2.5115 14.688 663.46 
-2.5115 14.779 663.46 
-2.5115 14.87 663.46 
-2.5115 14.96 663.44 
-2.5115 15.051 663.44 
-2.5115 15.14 663.46 
-2.5115 15.231 663.44 
-2.5114 15.32 663.43 
-2.5114 15.412 663.43 
-2.5115 15.504 663.45 
-2.5115 15.595 663.46 
-2.5114 15.685 663.44 
-2.5114 15.775 663.43 
-2.5115 15.865 663.45 
-2.5115 15.955 663.45 
-2.5114 16.046 663.44 
-2.5115 16.136 663.44 
-2.5115 16.226 663.46 
-2.5115 16.318 663.47 
-2.5115 16.409 663.47 
-2.5115 16.499 663.46 
-2.5116 16.59 663.48 
-2.5116 16.68 663.48 
-2.5116 16.772 663.5 
-2.5117 16.862 663.51 
-2.5117 16.953 663.51 
-2.5117 17.044 663.52 
-2.5118 17.134 663.53 
-2.5118 17.223 663.53 
-2.5119 17.315 663.57 
-2.5119 17.407 663.57 
-2.5119 17.497 663.55 
-2.5119 17.589 663.57 
-2.512 17.68 663.59 
-2.512 17.77 663.61 
-2.512 17.86 663.61 
-2.5121 17.951 663.61 
-2.5122 18.043 663.64 
-2.5122 18.134 663.66 
-2.5122 18.225 663.66 
-2.5123 18.315 663.67 
-2.5124 18.406 663.7 
-2.5125 18.496 663.72 
-2.5126 18.588 663.76 
-2.5126 18.679 663.75 
-2.5127 18.771 663.78 
-2.5127 18.862 663.79 
-2.5128 18.953 663.81 
-2.5129 19.045 663.83 
-2.513 19.135 663.85 
-2.5131 19.226 663.89 
-2.5132 19.317 663.91 
-2.5133 19.41 663.94 
-2.5134 19.501 663.96 
-2.5135 19.592 663.99 
-2.5136 19.684 664.03 
-2.5137 19.774 664.06 
-2.5138 19.865 664.06 
-2.5138 19.956 664.08 
-2.514 20.049 664.13 
-2.5141 20.14 664.15 
-2.5142 20.231 664.18 
-2.5143 20.323 664.2 
-2.5143 20.415 664.22 
-2.5144 20.505 664.23 
-2.5145 20.596 664.27 
-2.5147 20.687 664.32 
-2.5148 20.779 664.34 
-2.515 20.872 664.39 
-2.5151 20.963 664.41 
-2.5152 21.055 664.45 
-2.5154 21.147 664.49 
-2.5156 21.239 664.54 
-2.5158 21.331 664.59 
-2.5158 21.423 664.62 
-2.516 21.515 664.66 
-2.5161 21.608 664.7 
-2.5162 21.7 664.73 
-2.5165 21.792 664.79 
-2.5167 21.884 664.84 
-2.5168 21.975 664.87 
-2.5169 22.067 664.9 
-2.5171 22.16 664.95 
-2.5172 22.252 664.99 
-2.5175 22.345 665.05 
-2.5176 22.437 665.1 
-2.5178 22.53 665.15 
-2.5181 22.622 665.21 
-2.5182 22.715 665.26 
-2.5184 22.806 665.29 
-2.5185 22.898 665.33 
-2.5188 22.99 665.4 
-2.519 23.084 665.45 
-2.5192 23.177 665.51 
-2.5194 23.27 665.56 
-2.5196 23.362 665.62 
-2.5199 23.455 665.69 
-2.5201 23.548 665.75 
-2.5203 23.64 665.81 
-2.5205 23.734 665.85 
-2.5208 23.828 665.93 
-2.5209 23.92 665.97 
-2.5212 24.013 666.03 
-2.5214 24.106 666.1 
-2.5217 24.2 666.17 
-2.5219 24.293 666.24 
-2.5221 24.386 666.3 
-2.5224 24.48 666.37 
-2.5228 24.574 666.46 
-2.523 24.668 666.53 
-2.5233 24.761 666.6 
-2.5236 24.853 666.67 
-2.5239 24.946 666.74 
-2.5241 25.041 666.81 
-2.5244 25.134 666.9 
-2.5248 25.23 666.99 
-2.5251 25.323 667.06 
-2.5253 25.418 667.13 
-2.5255 25.511 667.19 
-2.5259 25.605 667.28 
-2.5263 25.7 667.38 
-2.5267 25.795 667.5 
-2.527 25.888 667.57 
-2.5273 25.984 667.66 
-2.5276 26.079 667.75 
-2.528 26.175 667.85 
-2.5285 26.271 667.98 
-2.5289 26.365 668.07 
-2.5292 26.459 668.16 
-2.5296 26.553 668.26 
-2.53 26.649 668.37 
-2.5303 26.744 668.46 
-2.5308 26.84 668.59 
-2.5313 26.937 668.71 
-2.5318 27.034 668.85 
-2.5322 27.129 668.95 
-2.5327 27.225 669.08 
-2.533 27.321 669.17 
-2.5335 27.417 669.29 
-2.5339 27.512 669.41 
-2.5344 27.609 669.53 
-2.535 27.707 669.69 
-2.5356 27.806 669.85 
-2.5361 27.904 670 
-2.5367 28.001 670.15 
-2.5373 28.099 670.31 
-2.5379 28.196 670.47 
-2.5385 28.294 670.61 
-2.5391 28.393 670.78 
-2.5397 28.491 670.95 
-2.5405 28.589 671.13 
-2.5411 28.688 671.29 
-2.5416 28.786 671.44 
-2.5425 28.887 671.67 
-2.5432 28.989 671.86 
-2.544 29.089 672.07 
-2.5449 29.19 672.3 
-2.5458 29.291 672.54 
-2.5469 29.395 672.82 
-2.5478 29.498 673.08 
-2.5487 29.601 673.32 
-2.5498 29.704 673.6 
-2.5511 29.811 673.94 
-2.4597 1.5014 674.01 
-2.4587 1.5919 673.76 
-2.4577 1.6836 673.48 
-2.4566 1.7719 673.15 
-2.4556 1.8649 672.89 
-2.4551 1.9551 672.76 
-2.4543 2.0476 672.53 
-2.4535 2.139 672.32 
-2.4525 2.2305 672.06 
-2.4518 2.3206 671.86 
-2.4512 2.411 671.7 
-2.4506 2.5021 671.52 
-2.4498 2.5943 671.32 
-2.4493 2.6844 671.19 
-2.4488 2.7752 671.04 
-2.4482 2.8657 670.87 
-2.4476 2.9559 670.71 
-2.4469 3.0472 670.53 
-2.4465 3.1376 670.4 
-2.446 3.2286 670.26 
-2.4455 3.3193 670.12 
-2.4449 3.41 669.96 
-2.4444 3.5 669.83 
-2.444 3.5904 669.72 
-2.4436 3.6808 669.61 
-2.4431 3.7706 669.47 
-2.4426 3.8608 669.33 
-2.4422 3.9527 669.24 
-2.4418 4.0443 669.11 
-2.4414 4.1361 669.01 
-2.441 4.226 668.9 
-2.4405 4.3159 668.78 
-2.4402 4.4071 668.7 
-2.4398 4.4969 668.57 
-2.4394 4.5878 668.46 
-2.439 4.6787 668.36 
-2.4386 4.7676 668.25 
-2.4383 4.8583 668.16 
-2.438 4.9486 668.07 
-2.4377 5.0394 668 
-2.4374 5.1286 667.91 
-2.437 5.2193 667.81 
-2.4366 5.3096 667.69 
-2.4363 5.4014 667.62 
-2.4361 5.4909 667.55 
-2.4357 5.5813 667.46 
-2.4354 5.6717 667.37 
-2.4351 5.7625 667.29 
-2.4348 5.8527 667.19 
-2.4346 5.9426 667.14 
-2.4342 6.032 667.05 
-2.434 6.1225 666.98 
-2.4337 6.2148 666.91 
-2.4335 6.3052 666.86 
-2.4331 6.3945 666.75 
-2.4329 6.484 666.67 
-2.4326 6.5752 666.61 
-2.4324 6.6644 666.55 
-2.4321 6.7554 666.46 
-2.4319 6.8455 666.4 
-2.4315 6.9345 666.32 
-2.4314 7.0252 666.28 
-2.4312 7.1155 666.22 
-2.4309 7.2072 666.14 
-2.4306 7.2963 666.07 
-2.4304 7.3871 666.02 
-2.4302 7.4768 665.94 
-2.43 7.5669 665.9 
-2.4298 7.6566 665.83 
-2.4296 7.7469 665.79 
-2.4293 7.8364 665.7 
-2.4291 7.9275 665.65 
-2.4289 8.0169 665.59 
-2.4288 8.1073 665.57 
-2.4286 8.1972 665.51 
-2.4284 8.2874 665.45 
-2.4281 8.3782 665.39 
-2.428 8.4689 665.36 
-2.4278 8.5584 665.31 
-2.4276 8.6477 665.24 
-2.4275 8.737 665.2 
-2.4273 8.8283 665.16 
-2.4271 8.9199 665.11 
-2.427 9.01 665.08 
-2.4267 9.0985 665.01 
-2.4266 9.1885 664.98 
-2.4265 9.2787 664.95 
-2.4264 9.3686 664.9 
-2.4262 9.4591 664.86 
-2.426 9.549 664.81 
-2.426 9.6394 664.8 
-2.4259 9.7298 664.77 
-2.4257 9.82 664.72 
-2.4255 9.9098 664.66 
-2.4253 10 664.61 
-2.4252 10.09 664.58 
-2.425 10.18 664.53 
-2.4248 10.271 664.49 
-2.4248 10.361 664.47 
-2.4246 10.451 664.43 
-2.4245 10.54 664.41 
-2.4245 10.631 664.4 
-2.4244 10.722 664.37 
-2.4242 10.811 664.32 
-2.4241 10.901 664.28 
-2.4239 10.991 664.25 
-2.4239 11.081 664.23 
-2.4238 11.171 664.2 
-2.4236 11.261 664.15 
-2.4235 11.352 664.12 
-2.4234 11.442 664.11 
-2.4234 11.533 664.1 
-2.4233 11.623 664.08 
-2.4232 11.713 664.05 
-2.4231 11.803 664.03 
-2.423 11.893 663.99 
-2.4229 11.983 663.95 
-2.4228 12.072 663.93 
-2.4227 12.163 663.91 
-2.4227 12.254 663.9 
-2.4225 12.344 663.85 
-2.4225 12.433 663.85 
-2.4224 12.523 663.83 
-2.4223 12.613 663.81 
-2.4222 12.704 663.79 
-2.4222 12.794 663.77 
-2.4221 12.885 663.76 
-2.4221 12.974 663.74 
-2.422 13.064 663.72 
-2.4219 13.155 663.7 
-2.4219 13.247 663.69 
-2.4219 13.336 663.69 
-2.4219 13.426 663.68 
-2.4218 13.516 663.66 
-2.4217 13.607 663.64 
-2.4217 13.697 663.64 
-2.4216 13.787 663.61 
-2.4215 13.877 663.59 
-2.4215 13.967 663.59 
-2.4215 14.057 663.57 
-2.4214 14.148 663.56 
-2.4214 14.239 663.57 
-2.4214 14.329 663.57 
-2.4214 14.42 663.57 
-2.4214 14.51 663.56 
-2.4213 14.6 663.54 
-2.4213 14.691 663.54 
-2.4213 14.781 663.54 
-2.4213 14.872 663.53 
-2.4212 14.962 663.51 
-2.4212 15.052 663.51 
-2.4212 15.142 663.5 
-2.4213 15.233 663.52 
-2.4213 15.323 663.52 
-2.4212 15.414 663.52 
-2.4212 15.505 663.51 
-2.4212 15.596 663.53 
-2.4212 15.686 663.51 
-2.4212 15.777 663.52 
-2.4212 15.867 663.52 
-2.4212 15.956 663.52 
-2.4211 16.047 663.49 
-2.4212 16.137 663.5 
-2.4213 16.228 663.54 
-2.4213 16.319 663.53 
-2.4212 16.41 663.52 
-2.4212 16.501 663.52 
-2.4214 16.592 663.56 
-2.4214 16.683 663.57 
-2.4214 16.774 663.58 
-2.4214 16.864 663.57 
-2.4215 16.955 663.59 
-2.4215 17.046 663.59 
-2.4215 17.136 663.6 
-2.4215 17.226 663.59 
-2.4216 17.317 663.62 
-2.4216 17.408 663.62 
-2.4216 17.5 663.63 
-2.4216 17.591 663.64 
-2.4217 17.681 663.65 
-2.4218 17.772 663.68 
-2.4218 17.862 663.68 
-2.4218 17.953 663.69 
-2.4218 18.044 663.69 
-2.4219 18.136 663.72 
-2.422 18.226 663.75 
-2.4221 18.318 663.77 
-2.4222 18.409 663.78 
-2.4222 18.499 663.79 
-2.4223 18.591 663.82 
-2.4223 18.682 663.82 
-2.4224 18.773 663.85 
-2.4225 18.865 663.88 
-2.4226 18.956 663.91 
-2.4226 19.046 663.91 
-2.4227 19.138 663.92 
-2.4228 19.228 663.95 
-2.4229 19.32 663.98 
-2.423 19.411 664.01 
-2.4231 19.503 664.04 
-2.4232 19.594 664.06 
-2.4233 19.685 664.1 
-2.4234 19.777 664.13 
-2.4235 19.867 664.15 
-2.4236 19.958 664.17 
-2.4237 20.05 664.21 
-2.4237 20.143 664.22 
-2.4238 20.234 664.23 
-2.4239 20.326 664.26 
-2.424 20.417 664.31 
-2.4241 20.508 664.33 
-2.4243 20.599 664.36 
-2.4244 20.69 664.39 
-2.4246 20.783 664.45 
-2.4247 20.874 664.48 
-2.4247 20.965 664.49 
-2.4249 21.057 664.54 
-2.4251 21.15 664.59 
-2.4253 21.243 664.64 
-2.4254 21.333 664.67 
-2.4254 21.424 664.68 
-2.4256 21.516 664.72 
-2.4257 21.609 664.77 
-2.4259 21.702 664.83 
-2.4261 21.795 664.88 
-2.4263 21.887 664.92 
-2.4264 21.978 664.94 
-2.4264 22.07 664.97 
-2.4267 22.162 665.03 
-2.4269 22.255 665.09 
-2.4271 22.347 665.15 
-2.4272 22.44 665.19 
-2.4274 22.532 665.24 
-2.4277 22.625 665.3 
-2.4278 22.717 665.34 
-2.428 22.809 665.39 
-2.4282 22.901 665.43 
-2.4284 22.994 665.49 
-2.4286 23.088 665.56 
-2.4287 23.181 665.6 
-2.4289 23.272 665.64 
-2.4292 23.365 665.71 
-2.4294 23.459 665.79 
-2.4296 23.552 665.85 
-2.4299 23.644 665.91 
-2.43 23.737 665.94 
-2.4302 23.83 666.01 
-2.4304 23.924 666.07 
-2.4306 24.016 666.12 
-2.4309 24.111 666.2 
-2.4311 24.204 666.26 
-2.4313 24.296 666.32 
-2.4316 24.389 666.39 
-2.4319 24.482 666.46 
-2.4322 24.576 666.54 
-2.4324 24.671 666.62 
-2.4327 24.764 666.68 
-2.433 24.857 666.75 
-2.4333 24.95 666.84 
-2.4336 25.044 666.92 
-2.4338 25.137 666.99 
-2.4341 25.232 667.07 
-2.4344 25.327 667.16 
-2.4348 25.422 667.25 
-2.435 25.515 667.33 
-2.4352 25.609 667.38 
-2.4357 25.704 667.5 
-2.436 25.798 667.59 
-2.4364 25.893 667.69 
-2.4367 25.989 667.78 
-2.437 26.084 667.88 
-2.4375 26.18 668 
-2.4378 26.274 668.08 
-2.4382 26.37 668.19 
-2.4385 26.463 668.28 
-2.4388 26.558 668.36 
-2.4393 26.654 668.5 
-2.4397 26.751 668.62 
-2.4401 26.846 668.72 
-2.4405 26.943 668.84 
-2.4411 27.039 668.98 
-2.4414 27.134 669.08 
-2.4419 27.23 669.21 
-2.4422 27.326 669.3 
-2.4426 27.422 669.42 
-2.4431 27.517 669.55 
-2.4436 27.614 669.67 
-2.4441 27.713 669.82 
-2.4447 27.81 669.97 
-2.4452 27.908 670.13 
-2.4458 28.005 670.28 
-2.4464 28.103 670.45 
-2.4471 28.201 670.62 
-2.4477 28.301 670.8 
-2.4482 28.398 670.93 
-2.4487 28.496 671.07 
-2.4494 28.595 671.27 
-2.4501 28.694 671.45 
-2.4508 28.795 671.64 
-2.4517 28.897 671.9 
-2.4523 28.998 672.08 
-2.4531 29.098 672.3 
-2.4539 29.199 672.51 
-2.4549 29.301 672.77 
-2.4559 29.404 673.05 
-2.4568 29.509 673.3 
-2.4578 29.609 673.57 
-2.4587 29.712 673.8 
-2.3685 1.5006 674.22 
-2.3674 1.5917 673.92 
-2.3668 1.6814 673.74 
-2.3655 1.7724 673.38 
-2.3644 1.8654 673.06 
-2.3638 1.9574 672.9 
-2.3632 2.0481 672.73 
-2.3625 2.139 672.53 
-2.3616 2.2311 672.26 
-2.3608 2.3228 672.04 
-2.3602 2.4123 671.87 
-2.3597 2.5039 671.73 
-2.3589 2.5938 671.51 
-2.3582 2.6843 671.29 
-2.3578 2.7737 671.18 
-2.3572 2.8651 671 
-2.3566 2.9572 670.85 
-2.356 3.0483 670.69 
-2.3555 3.1382 670.55 
-2.355 3.2293 670.4 
-2.3546 3.3192 670.28 
-2.354 3.4103 670.11 
-2.3535 3.5003 669.96 
-2.353 3.591 669.82 
-2.3527 3.6818 669.73 
-2.3522 3.7718 669.59 
-2.3518 3.8624 669.48 
-2.3514 3.9542 669.38 
-2.351 4.0448 669.27 
-2.3505 4.1359 669.12 
-2.3501 4.2267 669.01 
-2.3498 4.3167 668.91 
-2.3494 4.4073 668.8 
-2.349 4.4974 668.69 
-2.3487 4.5882 668.6 
-2.3483 4.6787 668.49 
-2.3479 4.7678 668.38 
-2.3476 4.859 668.28 
-2.3472 4.9485 668.18 
-2.3469 5.0401 668.1 
-2.3467 5.1302 668.02 
-2.3463 5.2201 667.93 
-2.3459 5.3104 667.8 
-2.3456 5.4014 667.73 
-2.3453 5.4922 667.64 
-2.345 5.5832 667.56 
-2.3447 5.6735 667.48 
-2.3444 5.764 667.38 
-2.3441 5.8536 667.3 
-2.3438 5.9436 667.21 
-2.3435 6.0347 667.13 
-2.3433 6.124 667.06 
-2.3431 6.2144 667 
-2.3428 6.3058 666.93 
-2.3425 6.3961 666.84 
-2.3422 6.4861 666.76 
-2.342 6.576 666.69 
-2.3419 6.6655 666.66 
-2.3415 6.7563 666.57 
-2.3413 6.8459 666.49 
-2.3409 6.9361 666.4 
-2.3408 7.0258 666.34 
-2.3406 7.1169 666.29 
-2.3403 7.2079 666.23 
-2.3402 7.2979 666.18 
-2.3399 7.3885 666.11 
-2.3397 7.4781 666.04 
-2.3395 7.5683 665.99 
-2.3393 7.6587 665.93 
-2.3391 7.7484 665.87 
-2.3389 7.838 665.81 
-2.3387 7.9288 665.75 
-2.3384 8.0178 665.68 
-2.3384 8.108 665.67 
-2.3381 8.1979 665.59 
-2.3378 8.2886 665.52 
-2.3376 8.3783 665.46 
-2.3375 8.4696 665.43 
-2.3374 8.5594 665.39 
-2.3372 8.648 665.34 
-2.337 8.738 665.28 
-2.3368 8.8291 665.24 
-2.3367 8.9205 665.2 
-2.3365 9.01 665.14 
-2.3363 9.0992 665.09 
-2.3362 9.1891 665.05 
-2.336 9.2802 665.01 
-2.3359 9.3702 664.96 
-2.3358 9.4612 664.94 
-2.3356 9.5503 664.88 
-2.3355 9.6408 664.87 
-2.3354 9.7318 664.84 
-2.3353 9.8225 664.81 
-2.3351 9.9117 664.75 
-2.3349 10.001 664.7 
-2.3348 10.09 664.65 
-2.3346 10.181 664.61 
-2.3345 10.271 664.58 
-2.3344 10.361 664.55 
-2.3342 10.451 664.5 
-2.3341 10.541 664.47 
-2.3341 10.633 664.46 
-2.334 10.724 664.44 
-2.3339 10.814 664.41 
-2.3338 10.903 664.37 
-2.3336 10.993 664.32 
-2.3335 11.082 664.31 
-2.3334 11.173 664.27 
-2.3332 11.262 664.22 
-2.3331 11.353 664.19 
-2.3331 11.444 664.17 
-2.3331 11.534 664.17 
-2.333 11.624 664.16 
-2.3329 11.714 664.14 
-2.3328 11.804 664.1 
-2.3327 11.894 664.07 
-2.3326 11.984 664.03 
-2.3325 12.073 664.01 
-2.3324 12.164 663.99 
-2.3323 12.255 663.97 
-2.3322 12.345 663.94 
-2.3322 12.434 663.92 
-2.3321 12.525 663.9 
-2.3321 12.615 663.89 
-2.3319 12.705 663.85 
-2.3319 12.795 663.84 
-2.3319 12.886 663.84 
-2.3318 12.976 663.81 
-2.3318 13.067 663.81 
-2.3317 13.158 663.78 
-2.3316 13.248 663.77 
-2.3316 13.339 663.78 
-2.3316 13.428 663.76 
-2.3316 13.518 663.75 
-2.3315 13.608 663.72 
-2.3314 13.698 663.71 
-2.3313 13.789 663.68 
-2.3312 13.878 663.66 
-2.3312 13.968 663.65 
-2.3312 14.059 663.65 
-2.3311 14.15 663.63 
-2.3311 14.24 663.63 
-2.3312 14.331 663.64 
-2.3311 14.422 663.63 
-2.3311 14.512 663.62 
-2.3311 14.601 663.61 
-2.331 14.693 663.61 
-2.3311 14.783 663.61 
-2.3311 14.873 663.61 
-2.331 14.963 663.59 
-2.331 15.054 663.59 
-2.3309 15.144 663.58 
-2.331 15.234 663.59 
-2.331 15.324 663.59 
-2.331 15.415 663.59 
-2.3309 15.506 663.57 
-2.3309 15.597 663.58 
-2.3309 15.688 663.58 
-2.331 15.778 663.6 
-2.331 15.867 663.59 
-2.331 15.957 663.58 
-2.3309 16.047 663.57 
-2.3309 16.139 663.57 
-2.331 16.23 663.6 
-2.3311 16.322 663.62 
-2.3311 16.411 663.61 
-2.331 16.502 663.61 
-2.3311 16.593 663.63 
-2.3312 16.685 663.65 
-2.3311 16.775 663.63 
-2.3312 16.866 663.65 
-2.3312 16.957 663.65 
-2.3312 17.047 663.65 
-2.3312 17.138 663.66 
-2.3312 17.228 663.67 
-2.3313 17.319 663.68 
-2.3313 17.41 663.7 
-2.3313 17.502 663.7 
-2.3315 17.593 663.74 
-2.3315 17.684 663.75 
-2.3316 17.774 663.76 
-2.3316 17.864 663.76 
-2.3315 17.955 663.76 
-2.3316 18.046 663.77 
-2.3317 18.137 663.79 
-2.3318 18.228 663.83 
-2.3319 18.319 663.85 
-2.3319 18.412 663.87 
-2.332 18.503 663.89 
-2.3321 18.593 663.91 
-2.332 18.684 663.91 
-2.3322 18.775 663.94 
-2.3322 18.867 663.96 
-2.3323 18.958 663.99 
-2.3322 19.048 663.97 
-2.3323 19.139 663.98 
-2.3324 19.23 664.01 
-2.3326 19.323 664.07 
-2.3327 19.415 664.11 
-2.3328 19.505 664.12 
-2.3329 19.596 664.14 
-2.333 19.687 664.18 
-2.3331 19.78 664.2 
-2.3332 19.869 664.22 
-2.3332 19.961 664.24 
-2.3333 20.052 664.27 
-2.3334 20.144 664.29 
-2.3335 20.236 664.32 
-2.3335 20.328 664.34 
-2.3337 20.419 664.39 
-2.3339 20.511 664.43 
-2.334 20.602 664.46 
-2.3341 20.694 664.49 
-2.3342 20.785 664.53 
-2.3344 20.877 664.57 
-2.3344 20.968 664.58 
-2.3346 21.06 664.62 
-2.3347 21.152 664.66 
-2.3349 21.245 664.72 
-2.335 21.337 664.74 
-2.3351 21.428 664.78 
-2.3353 21.52 664.83 
-2.3354 21.612 664.86 
-2.3356 21.705 664.91 
-2.3357 21.798 664.96 
-2.3358 21.889 664.99 
-2.336 21.98 665.04 
-2.3361 22.074 665.08 
-2.3363 22.166 665.12 
-2.3365 22.258 665.19 
-2.3367 22.352 665.25 
-2.3368 22.444 665.28 
-2.3369 22.536 665.31 
-2.3372 22.628 665.38 
-2.3373 22.72 665.41 
-2.3375 22.811 665.45 
-2.3376 22.904 665.51 
-2.3379 22.997 665.59 
-2.3381 23.09 665.63 
-2.3382 23.183 665.68 
-2.3384 23.276 665.73 
-2.3386 23.368 665.79 
-2.3389 23.461 665.86 
-2.3391 23.555 665.93 
-2.3393 23.648 665.99 
-2.3395 23.74 666.05 
-2.3397 23.834 666.11 
-2.3399 23.927 666.17 
-2.3402 24.021 666.25 
-2.3404 24.114 666.31 
-2.3406 24.206 666.37 
-2.3408 24.299 666.42 
-2.3411 24.393 666.5 
-2.3414 24.486 666.57 
-2.3416 24.579 666.64 
-2.3418 24.673 666.7 
-2.342 24.766 666.76 
-2.3423 24.86 666.84 
-2.3426 24.954 666.93 
-2.343 25.049 667.03 
-2.3432 25.142 667.1 
-2.3435 25.237 667.18 
-2.3438 25.332 667.27 
-2.3441 25.427 667.37 
-2.3444 25.52 667.44 
-2.3446 25.613 667.5 
-2.3449 25.708 667.6 
-2.3453 25.803 667.7 
-2.3456 25.898 667.79 
-2.346 25.993 667.89 
-2.3463 26.088 667.99 
-2.3467 26.184 668.1 
-2.3471 26.277 668.2 
-2.3475 26.372 668.31 
-2.3477 26.468 668.39 
-2.348 26.563 668.48 
-2.3484 26.659 668.6 
-2.3488 26.754 668.71 
-2.3493 26.85 668.83 
-2.3497 26.946 668.96 
-2.3502 27.043 669.09 
-2.3506 27.138 669.2 
-2.351 27.234 669.31 
-2.3514 27.331 669.43 
-2.3519 27.429 669.57 
-2.3522 27.524 669.67 
-2.3528 27.622 669.84 
-2.3533 27.719 669.97 
-2.3538 27.816 670.12 
-2.3544 27.914 670.28 
-2.355 28.012 670.46 
-2.3555 28.11 670.6 
-2.3561 28.208 670.78 
-2.3567 28.306 670.94 
-2.3572 28.404 671.09 
-2.3579 28.504 671.28 
-2.3586 28.604 671.48 
-2.3592 28.704 671.65 
-2.3599 28.805 671.85 
-2.3605 28.904 672.03 
-2.3613 29.004 672.25 
-2.3622 29.106 672.49 
-2.3631 29.206 672.74 
-2.364 29.31 673.01 
-2.3649 29.416 673.28 
-2.3658 29.518 673.53 
-2.3668 29.622 673.82 
-2.2782 1.5004 674.72 
-2.2763 1.5928 674.16 
-2.2753 1.6826 673.87 
-2.2744 1.7761 673.6 
-2.2737 1.8672 673.39 
-2.2726 1.9566 673.07 
-2.272 2.0474 672.88 
-2.2714 2.1405 672.71 
-2.2706 2.233 672.48 
-2.2698 2.3217 672.24 
-2.2693 2.4123 672.1 
-2.2686 2.5036 671.87 
-2.2679 2.5936 671.67 
-2.2671 2.6843 671.45 
-2.2667 2.7753 671.32 
-2.2662 2.8661 671.17 
-2.2656 2.9581 671 
-2.265 3.0471 670.83 
-2.2645 3.1382 670.67 
-2.2641 3.2292 670.54 
-2.2636 3.3198 670.39 
-2.2632 3.4111 670.27 
-2.2626 3.501 670.11 
-2.2621 3.5917 669.96 
-2.2619 3.6812 669.88 
-2.2614 3.7722 669.76 
-2.261 3.8633 669.62 
-2.2605 3.9541 669.48 
-2.2601 4.046 669.38 
-2.2597 4.1361 669.25 
-2.2593 4.2279 669.12 
-2.2589 4.3174 669.02 
-2.2587 4.4078 668.94 
-2.2583 4.4983 668.84 
-2.2579 4.5889 668.71 
-2.2575 4.6786 668.6 
-2.2571 4.7689 668.49 
-2.2568 4.8591 668.4 
-2.2565 4.9501 668.31 
-2.2562 5.04 668.21 
-2.2559 5.1313 668.13 
-2.2557 5.221 668.06 
-2.2552 5.311 667.93 
-2.2549 5.4019 667.82 
-2.2546 5.4938 667.74 
-2.2543 5.5839 667.65 
-2.254 5.6742 667.57 
-2.2536 5.7638 667.46 
-2.2534 5.8547 667.38 
-2.2531 5.9454 667.3 
-2.2529 6.036 667.24 
-2.2526 6.1267 667.17 
-2.2524 6.2154 667.09 
-2.2521 6.3068 667.01 
-2.2519 6.3972 666.94 
-2.2516 6.4866 666.86 
-2.2514 6.5771 666.8 
-2.2512 6.6666 666.73 
-2.251 6.7573 666.67 
-2.2506 6.8472 666.57 
-2.2504 6.9373 666.51 
-2.2502 7.0279 666.44 
-2.25 7.1181 666.38 
-2.2498 7.2089 666.32 
-2.2496 7.2994 666.26 
-2.2493 7.3891 666.2 
-2.2491 7.4799 666.14 
-2.249 7.5688 666.1 
-2.2488 7.6586 666.03 
-2.2486 7.7491 665.96 
-2.2483 7.8404 665.9 
-2.2481 7.93 665.84 
-2.248 8.0193 665.78 
-2.2478 8.1092 665.74 
-2.2476 8.1999 665.67 
-2.2474 8.2904 665.62 
-2.2472 8.3794 665.56 
-2.2471 8.4698 665.53 
-2.2469 8.5596 665.47 
-2.2467 8.6505 665.43 
-2.2466 8.7408 665.37 
-2.2464 8.8315 665.34 
-2.2463 8.9217 665.29 
-2.2461 9.0112 665.24 
-2.246 9.0993 665.2 
-2.2458 9.1905 665.15 
-2.2457 9.2823 665.12 
-2.2455 9.3724 665.06 
-2.2454 9.4621 665.03 
-2.2452 9.5518 664.98 
-2.2451 9.6423 664.96 
-2.245 9.7344 664.93 
-2.2449 9.8246 664.88 
-2.2447 9.9136 664.84 
-2.2446 10.003 664.79 
-2.2445 10.093 664.76 
-2.2443 10.183 664.72 
-2.2442 10.272 664.67 
-2.244 10.362 664.62 
-2.2438 10.452 664.57 
-2.2437 10.543 664.55 
-2.2437 10.634 664.54 
-2.2437 10.724 664.53 
-2.2435 10.814 664.49 
-2.2434 10.904 664.43 
-2.2433 10.994 664.4 
-2.2432 11.085 664.38 
-2.2431 11.174 664.35 
-2.243 11.265 664.32 
-2.2428 11.355 664.27 
-2.2427 11.444 664.25 
-2.2427 11.535 664.24 
-2.2426 11.625 664.22 
-2.2426 11.715 664.2 
-2.2425 11.805 664.18 
-2.2424 11.896 664.15 
-2.2423 11.985 664.11 
-2.2422 12.076 664.1 
-2.2422 12.166 664.08 
-2.2421 12.257 664.07 
-2.242 12.346 664.02 
-2.2419 12.436 664 
-2.2418 12.526 663.98 
-2.2418 12.617 663.97 
-2.2417 12.708 663.94 
-2.2416 12.798 663.92 
-2.2416 12.888 663.91 
-2.2415 12.979 663.9 
-2.2415 13.068 663.88 
-2.2414 13.158 663.87 
-2.2413 13.249 663.85 
-2.2413 13.34 663.85 
-2.2413 13.43 663.83 
-2.2412 13.519 663.8 
-2.2412 13.609 663.81 
-2.2412 13.7 663.81 
-2.2411 13.791 663.77 
-2.2411 13.881 663.77 
-2.241 13.971 663.75 
-2.241 14.061 663.76 
-2.241 14.152 663.74 
-2.2409 14.242 663.72 
-2.2409 14.333 663.73 
-2.2409 14.424 663.72 
-2.2409 14.513 663.72 
-2.2408 14.603 663.68 
-2.2408 14.694 663.69 
-2.2408 14.785 663.68 
-2.2408 14.875 663.68 
-2.2408 14.965 663.68 
-2.2407 15.055 663.66 
-2.2407 15.146 663.66 
-2.2408 15.237 663.68 
-2.2407 15.327 663.66 
-2.2407 15.417 663.66 
-2.2407 15.507 663.66 
-2.2407 15.598 663.66 
-2.2408 15.689 663.68 
-2.2408 15.779 663.68 
-2.2408 15.869 663.68 
-2.2408 15.96 663.68 
-2.2408 16.051 663.68 
-2.2407 16.141 663.67 
-2.2407 16.233 663.67 
-2.2408 16.323 663.68 
-2.2408 16.414 663.69 
-2.2408 16.504 663.7 
-2.2408 16.595 663.71 
-2.2409 16.687 663.71 
-2.2409 16.777 663.71 
-2.2409 16.867 663.72 
-2.2409 16.959 663.72 
-2.241 17.05 663.75 
-2.2409 17.14 663.74 
-2.241 17.231 663.74 
-2.241 17.321 663.75 
-2.2411 17.413 663.78 
-2.2411 17.504 663.79 
-2.2412 17.595 663.82 
-2.2412 17.685 663.81 
-2.2413 17.775 663.84 
-2.2413 17.866 663.84 
-2.2413 17.957 663.85 
-2.2414 18.049 663.87 
-2.2415 18.139 663.89 
-2.2415 18.23 663.9 
-2.2416 18.322 663.93 
-2.2417 18.413 663.96 
-2.2417 18.505 663.98 
-2.2417 18.595 663.97 
-2.2417 18.686 663.97 
-2.2417 18.776 663.98 
-2.2418 18.868 664.01 
-2.2419 18.96 664.04 
-2.2419 19.05 664.04 
-2.242 19.14 664.04 
-2.2421 19.232 664.1 
-2.2423 19.325 664.14 
-2.2424 19.416 664.18 
-2.2424 19.507 664.19 
-2.2425 19.598 664.22 
-2.2426 19.689 664.25 
-2.2427 19.781 664.26 
-2.2428 19.873 664.29 
-2.2429 19.964 664.32 
-2.243 20.056 664.37 
-2.2431 20.147 664.38 
-2.2432 20.239 664.41 
-2.2433 20.33 664.44 
-2.2434 20.422 664.48 
-2.2435 20.513 664.51 
-2.2436 20.605 664.54 
-2.2437 20.696 664.58 
-2.2439 20.788 664.62 
-2.244 20.88 664.66 
-2.2441 20.971 664.68 
-2.2442 21.064 664.72 
-2.2444 21.155 664.76 
-2.2445 21.247 664.8 
-2.2446 21.339 664.84 
-2.2447 21.431 664.87 
-2.2449 21.523 664.91 
-2.245 21.615 664.94 
-2.2451 21.708 664.99 
-2.2452 21.8 665.03 
-2.2454 21.892 665.08 
-2.2456 21.984 665.13 
-2.2457 22.076 665.16 
-2.2458 22.168 665.2 
-2.2461 22.261 665.27 
-2.2462 22.354 665.32 
-2.2464 22.447 665.36 
-2.2465 22.539 665.4 
-2.2466 22.631 665.44 
-2.2469 22.723 665.51 
-2.2471 22.815 665.56 
-2.2472 22.907 665.6 
-2.2474 23.001 665.67 
-2.2475 23.092 665.7 
-2.2478 23.186 665.78 
-2.2479 23.278 665.81 
-2.2481 23.371 665.87 
-2.2483 23.465 665.94 
-2.2485 23.557 665.99 
-2.2488 23.652 666.08 
-2.249 23.743 666.13 
-2.2491 23.836 666.18 
-2.2494 23.929 666.26 
-2.2497 24.023 666.34 
-2.2499 24.118 666.41 
-2.2501 24.21 666.47 
-2.2504 24.304 666.55 
-2.2506 24.396 666.61 
-2.2508 24.49 666.68 
-2.251 24.583 666.74 
-2.2512 24.676 666.8 
-2.2514 24.771 666.87 
-2.2517 24.864 666.94 
-2.252 24.959 667.04 
-2.2523 25.053 667.12 
-2.2525 25.145 667.19 
-2.2528 25.24 667.27 
-2.2532 25.335 667.38 
-2.2535 25.43 667.48 
-2.2537 25.525 667.55 
-2.254 25.619 667.63 
-2.2543 25.714 667.73 
-2.2547 25.808 667.83 
-2.255 25.902 667.92 
-2.2553 25.997 668.01 
-2.2556 26.093 668.11 
-2.2559 26.186 668.2 
-2.2563 26.282 668.31 
-2.2566 26.377 668.41 
-2.2569 26.474 668.51 
-2.2573 26.568 668.6 
-2.2576 26.662 668.71 
-2.258 26.758 668.83 
-2.2584 26.854 668.94 
-2.2589 26.951 669.08 
-2.2593 27.048 669.21 
-2.2596 27.143 669.3 
-2.2601 27.239 669.42 
-2.2605 27.337 669.57 
-2.261 27.435 669.72 
-2.2615 27.532 669.85 
-2.2619 27.627 669.98 
-2.2624 27.724 670.13 
-2.2629 27.821 670.26 
-2.2634 27.918 670.4 
-2.2639 28.016 670.57 
-2.2645 28.114 670.74 
-2.2651 28.212 670.9 
-2.2656 28.311 671.07 
-2.2662 28.41 671.23 
-2.2668 28.509 671.42 
-2.2675 28.611 671.63 
-2.2682 28.712 671.83 
-2.2689 28.812 672.05 
-2.2696 28.914 672.27 
-2.2703 29.013 672.46 
-2.2712 29.114 672.71 
-2.272 29.216 672.96 
-2.2729 29.318 673.21 
-2.2737 29.422 673.47 
-2.2747 29.528 673.76 
-2.1862 1.5943 674.75 
-2.184 1.6861 674.05 
-2.1833 1.7783 673.86 
-2.1827 1.8685 673.65 
-2.1817 1.9557 673.34 
-2.181 2.049 673.12 
-2.1804 2.1393 672.93 
-2.1796 2.2323 672.7 
-2.1787 2.3215 672.43 
-2.178 2.4125 672.21 
-2.1775 2.5032 672.04 
-2.1768 2.5937 671.84 
-2.1762 2.6854 671.64 
-2.1756 2.7757 671.47 
-2.1753 2.8674 671.36 
-2.1747 2.9578 671.18 
