ply
format ascii 1.0
comment Author: CloudCompare (TELECOM PARISTECH/EDF R&D)
obj_info Generated by CloudCompare!
element vertex 2183
property float x
property float y
property float z
end_header
21.415 6.1037 664.56 
21.414 6.1942 664.52 
21.413 6.285 664.49 
21.412 6.3749 664.46 
21.411 6.4665 664.44 
21.41 6.5563 664.39 
21.409 6.6456 664.38 
21.409 6.7356 664.38 
21.409 6.8261 664.35 
21.407 6.9163 664.32 
21.406 7.0072 664.27 
21.405 7.0987 664.25 
21.405 7.1891 664.23 
21.404 7.2783 664.22 
21.403 7.3685 664.19 
21.403 7.4592 664.17 
21.402 7.5494 664.16 
21.402 7.6401 664.14 
21.401 7.7299 664.11 
21.4 7.8208 664.09 
21.399 7.9107 664.07 
21.399 8.0013 664.05 
21.398 8.0919 664.03 
21.398 8.183 664.02 
21.397 8.2728 664 
21.397 8.3629 663.98 
21.395 8.4526 663.95 
21.395 8.5439 663.95 
21.394 8.6343 663.92 
21.394 8.7245 663.91 
21.394 8.8155 663.9 
21.393 8.9062 663.88 
21.392 8.9963 663.86 
21.392 9.0861 663.83 
21.391 9.1769 663.82 
21.391 9.2684 663.82 
21.391 9.3587 663.81 
21.391 9.4499 663.8 
21.391 9.5395 663.79 
21.39 9.6302 663.79 
21.391 9.7212 663.8 
21.39 9.812 663.79 
21.39 9.9016 663.77 
21.39 9.9927 663.76 
21.39 10.084 663.77 
21.39 10.175 663.76 
21.39 10.265 663.76 
21.39 10.356 663.77 
21.39 10.446 663.77 
21.39 10.536 663.77 
21.39 10.623 663.77 
21.389 10.714 663.74 
21.386 10.803 663.66 
21.385 10.892 663.61 
21.384 10.98 663.6 
21.385 11.07 663.64 
21.386 11.163 663.66 
21.386 11.255 663.65 
21.387 11.341 663.68 
21.388 11.432 663.72 
21.389 11.533 663.73 
21.385 11.976 663.63 
21.385 12.067 663.62 
21.385 12.163 663.62 
21.384 12.252 663.6 
21.385 12.341 663.64 
21.388 12.433 663.71 
21.39 12.525 663.77 
21.389 12.615 663.76 
21.389 12.703 663.74 
21.388 12.794 663.72 
21.387 12.884 663.69 
21.387 12.975 663.68 
21.388 13.067 663.7 
21.389 13.158 663.73 
21.389 13.248 663.74 
21.388 13.338 663.72 
21.388 13.428 663.71 
21.388 13.519 663.71 
21.387 13.609 663.69 
21.388 13.7 663.71 
21.388 13.792 663.73 
21.389 13.883 663.74 
21.389 13.974 663.75 
21.389 14.064 663.75 
21.39 14.155 663.78 
21.39 14.245 663.79 
21.39 14.336 663.79 
21.391 14.428 663.8 
21.391 14.518 663.82 
21.392 14.609 663.84 
21.392 14.699 663.85 
21.393 14.791 663.86 
21.393 14.882 663.87 
21.393 14.971 663.87 
21.394 15.062 663.89 
21.394 15.154 663.91 
21.395 15.246 663.92 
21.395 15.336 663.93 
21.395 15.426 663.94 
21.396 15.518 663.97 
21.396 15.609 663.97 
21.397 15.7 663.99 
21.398 15.791 664.01 
21.398 15.882 664.04 
21.399 15.973 664.06 
21.4 16.064 664.08 
21.401 16.156 664.1 
21.401 16.247 664.13 
21.402 16.338 664.15 
21.403 16.428 664.17 
21.403 16.52 664.19 
21.405 16.612 664.23 
21.406 16.703 664.26 
21.406 16.795 664.27 
21.406 16.885 664.28 
21.407 16.976 664.29 
21.408 17.067 664.32 
21.409 17.159 664.35 
21.41 17.251 664.39 
21.411 17.342 664.43 
21.412 17.434 664.45 
21.413 17.525 664.48 
21.414 17.616 664.51 
21.415 17.707 664.54 
21.415 17.799 664.56 
21.416 17.89 664.58 
21.417 17.982 664.62 
21.418 18.072 664.65 
21.419 18.164 664.67 
21.42 18.256 664.7 
21.421 18.348 664.74 
21.422 18.439 664.78 
21.424 18.53 664.82 
21.424 18.623 664.84 
21.426 18.715 664.89 
21.427 18.808 664.92 
21.428 18.899 664.95 
21.429 18.99 664.99 
21.43 19.081 665.03 
21.431 19.174 665.06 
21.433 19.266 665.1 
21.434 19.359 665.14 
21.436 19.45 665.19 
21.436 19.541 665.22 
21.437 19.632 665.23 
21.439 19.724 665.28 
21.44 19.816 665.33 
21.442 19.908 665.38 
21.443 20 665.42 
21.445 20.093 665.48 
21.446 20.185 665.51 
21.447 20.276 665.53 
21.448 20.367 665.58 
21.45 20.461 665.64 
21.452 20.554 665.7 
21.454 20.647 665.75 
21.455 20.738 665.79 
21.457 20.83 665.84 
21.458 20.922 665.9 
21.46 21.015 665.94 
21.461 21.108 665.98 
21.463 21.2 666.05 
21.465 21.293 666.11 
21.467 21.386 666.16 
21.468 21.479 666.21 
21.47 21.571 666.26 
21.472 21.663 666.31 
21.474 21.756 666.37 
21.476 21.849 666.43 
21.477 21.942 666.48 
21.479 22.035 666.55 
21.481 22.128 666.61 
21.483 22.221 666.65 
21.484 22.312 666.7 
21.486 22.405 666.76 
21.489 22.498 666.83 
21.491 22.591 666.9 
21.493 22.685 666.97 
21.495 22.779 667.04 
21.497 22.872 667.1 
21.499 22.965 667.17 
21.501 23.059 667.23 
21.504 23.152 667.3 
21.505 23.245 667.34 
21.507 23.339 667.41 
21.51 23.432 667.5 
21.513 23.526 667.6 
21.516 23.62 667.67 
21.518 23.714 667.75 
21.52 23.808 667.82 
21.523 23.901 667.89 
21.525 23.995 667.97 
21.527 24.089 668.03 
21.53 24.182 668.11 
21.532 24.278 668.19 
21.535 24.372 668.28 
21.538 24.466 668.37 
21.541 24.56 668.45 
21.544 24.654 668.54 
21.547 24.748 668.63 
21.549 24.842 668.71 
21.552 24.938 668.81 
21.555 25.032 668.89 
21.558 25.128 668.98 
21.561 25.224 669.09 
21.564 25.317 669.17 
21.568 25.412 669.29 
21.571 25.506 669.38 
21.574 25.601 669.47 
21.577 25.697 669.58 
21.58 25.792 669.68 
21.583 25.887 669.77 
21.587 25.982 669.88 
21.59 26.077 669.98 
21.593 26.172 670.08 
21.597 26.267 670.18 
21.601 26.366 670.31 
21.604 26.462 670.42 
21.608 26.557 670.54 
21.612 26.653 670.67 
21.616 26.749 670.78 
21.619 26.844 670.87 
21.623 26.941 671 
21.628 27.038 671.15 
21.632 27.134 671.28 
21.636 27.231 671.4 
21.641 27.329 671.56 
21.646 27.428 671.71 
21.65 27.524 671.83 
21.654 27.621 671.98 
21.658 27.718 672.1 
21.663 27.816 672.25 
21.668 27.914 672.41 
21.673 28.012 672.56 
21.678 28.111 672.72 
21.684 28.21 672.9 
21.689 28.31 673.07 
21.694 28.407 673.22 
21.7 28.506 673.38 
21.706 28.607 673.57 
21.712 28.707 673.76 
21.719 28.808 673.98 
21.726 28.908 674.19 
21.732 29.008 674.39 
21.74 29.109 674.62 
21.747 29.211 674.84 
21.754 29.313 675.06 
21.762 29.416 675.33 
21.771 29.519 675.58 
21.778 29.62 675.8 
21.898 -6.0605 676.68 
21.892 -5.9675 676.51 
21.887 -5.8729 676.34 
21.879 -5.7806 676.08 
21.868 -5.6831 675.75 
21.858 -5.587 675.44 
21.852 -5.4974 675.26 
21.845 -5.4029 675.06 
21.838 -5.3097 674.85 
21.832 -5.214 674.64 
21.824 -5.1199 674.41 
21.82 -5.0272 674.26 
21.814 -4.9346 674.08 
21.807 -4.8414 673.87 
21.801 -4.7478 673.68 
21.795 -4.6553 673.5 
21.79 -4.5635 673.35 
21.784 -4.4703 673.17 
21.779 -4.3768 673.02 
21.774 -4.2829 672.85 
21.769 -4.1918 672.7 
21.764 -4.0983 672.56 
21.759 -4.0054 672.39 
21.755 -3.9115 672.25 
21.75 -3.8195 672.12 
21.745 -3.7277 671.95 
21.74 -3.6362 671.82 
21.736 -3.543 671.67 
21.732 -3.451 671.56 
21.729 -3.3593 671.46 
21.724 -3.2662 671.31 
21.72 -3.1739 671.19 
21.717 -3.0841 671.08 
21.713 -2.9916 670.97 
21.709 -2.8985 670.85 
21.705 -2.8056 670.73 
21.702 -2.7141 670.63 
21.698 -2.6237 670.5 
21.694 -2.5316 670.38 
21.69 -2.4391 670.27 
21.687 -2.3473 670.18 
21.683 -2.2552 670.05 
21.681 -2.1616 669.97 
21.677 -2.0701 669.87 
21.675 -1.9786 669.79 
21.672 -1.8874 669.69 
21.668 -1.7956 669.58 
21.665 -1.7049 669.48 
21.661 -1.6132 669.37 
21.658 -1.5205 669.27 
21.655 -1.4304 669.19 
21.653 -1.3397 669.1 
21.65 -1.2484 669.01 
21.647 -1.1567 668.92 
21.644 -1.0652 668.84 
21.641 -0.97258 668.73 
21.638 -0.88145 668.66 
21.636 -0.78949 668.58 
21.632 -0.69843 668.47 
21.631 -0.60792 668.42 
21.628 -0.51614 668.34 
21.625 -0.42416 668.26 
21.623 -0.334 668.18 
21.62 -0.24422 668.09 
21.618 -0.15339 668.03 
21.615 -0.062491 667.94 
21.612 0.028652 667.85 
21.61 0.11983 667.8 
21.608 0.2115 667.72 
21.605 0.3031 667.64 
21.603 0.39474 667.57 
21.601 0.48443 667.51 
21.599 0.5764 667.43 
21.596 0.66633 667.36 
21.595 0.75754 667.31 
21.593 0.84737 667.25 
21.59 0.93862 667.16 
21.587 1.0292 667.09 
21.586 1.1209 667.03 
21.584 1.2119 666.97 
21.582 1.3025 666.91 
21.58 1.3943 666.85 
21.577 1.4851 666.77 
21.575 1.5754 666.71 
21.574 1.6667 666.67 
21.573 1.7565 666.64 
21.571 1.8475 666.57 
21.568 1.9377 666.48 
21.566 2.029 666.43 
21.565 2.1206 666.38 
21.563 2.2112 666.34 
21.562 2.3024 666.29 
21.56 2.3925 666.23 
21.558 2.4831 666.17 
21.556 2.5739 666.13 
21.555 2.6646 666.09 
21.553 2.7558 666.02 
21.551 2.846 665.96 
21.549 2.9365 665.9 
21.547 3.0264 665.84 
21.546 3.1176 665.8 
21.544 3.2088 665.75 
21.543 3.2994 665.71 
21.542 3.3896 665.68 
21.54 3.4804 665.63 
21.539 3.5708 665.6 
21.538 3.6616 665.55 
21.537 3.7517 665.51 
21.535 3.8424 665.46 
21.534 3.9324 665.43 
21.532 4.0231 665.37 
21.531 4.114 665.34 
21.53 4.2047 665.3 
21.528 4.295 665.25 
21.527 4.3858 665.21 
21.525 4.476 665.17 
21.525 4.5665 665.15 
21.524 4.6558 665.12 
21.522 4.7461 665.06 
21.52 4.837 665.01 
21.519 4.9269 664.96 
21.518 5.0181 664.94 
21.517 5.1089 664.91 
21.516 5.1996 664.89 
21.515 5.2898 664.84 
21.513 5.3805 664.8 
21.512 5.4701 664.75 
21.512 5.561 664.74 
21.511 5.6517 664.72 
21.51 5.7424 664.68 
21.508 5.8325 664.64 
21.507 5.9229 664.61 
21.506 6.0142 664.57 
21.506 6.1031 664.56 
21.505 6.1937 664.53 
21.504 6.2842 664.5 
21.503 6.3755 664.48 
21.502 6.4655 664.45 
21.501 6.5553 664.41 
21.5 6.6455 664.39 
21.5 6.7366 664.39 
21.5 6.8262 664.38 
21.498 6.9165 664.32 
21.497 7.0079 664.28 
21.496 7.0989 664.27 
21.495 7.1888 664.24 
21.495 7.2784 664.23 
21.494 7.3686 664.21 
21.493 7.4589 664.17 
21.493 7.5494 664.16 
21.492 7.6403 664.14 
21.492 7.7306 664.13 
21.491 7.8208 664.1 
21.49 7.9113 664.07 
21.49 8.0027 664.06 
21.489 8.0927 664.04 
21.489 8.1827 664.03 
21.488 8.2736 664.01 
21.488 8.3635 664 
21.487 8.4537 663.97 
21.486 8.5438 663.95 
21.485 8.6337 663.92 
21.485 8.7244 663.92 
21.485 8.8151 663.91 
21.484 8.9058 663.9 
21.484 8.9957 663.88 
21.483 9.0871 663.86 
21.483 9.1783 663.84 
21.482 9.2687 663.84 
21.482 9.3589 663.83 
21.482 9.4498 663.82 
21.482 9.54 663.81 
21.481 9.6305 663.8 
21.482 9.7223 663.81 
21.481 9.8125 663.79 
21.48 9.9026 663.77 
21.48 9.9932 663.76 
21.48 10.083 663.76 
21.48 10.174 663.77 
21.48 10.265 663.76 
21.48 10.357 663.75 
21.479 10.446 663.74 
21.48 10.535 663.76 
21.481 10.623 663.79 
21.481 10.713 663.79 
21.479 10.802 663.72 
21.477 10.89 663.66 
21.477 10.978 663.67 
21.478 11.069 663.71 
21.479 11.164 663.72 
21.478 11.258 663.71 
21.479 11.339 663.75 
21.481 11.428 663.8 
21.477 11.979 663.68 
21.476 12.067 663.63 
21.475 12.161 663.62 
21.474 12.252 663.59 
21.476 12.341 663.63 
21.478 12.431 663.7 
21.48 12.523 663.75 
21.48 12.615 663.77 
21.48 12.705 663.76 
21.479 12.795 663.73 
21.478 12.884 663.7 
21.477 12.974 663.67 
21.477 13.065 663.68 
21.479 13.157 663.72 
21.479 13.247 663.73 
21.479 13.337 663.72 
21.478 13.428 663.7 
21.478 13.519 663.7 
21.478 13.609 663.7 
21.479 13.701 663.73 
21.479 13.792 663.74 
21.48 13.883 663.75 
21.48 13.974 663.76 
21.481 14.064 663.78 
21.481 14.155 663.79 
21.481 14.246 663.8 
21.481 14.337 663.8 
21.482 14.428 663.82 
21.482 14.519 663.83 
21.483 14.61 663.85 
21.483 14.7 663.86 
21.484 14.791 663.87 
21.484 14.881 663.87 
21.484 14.971 663.88 
21.484 15.062 663.9 
21.485 15.155 663.92 
21.485 15.246 663.92 
21.485 15.336 663.93 
21.486 15.427 663.95 
21.487 15.518 663.97 
21.488 15.61 663.99 
21.488 15.701 664.01 
21.489 15.791 664.03 
21.49 15.883 664.07 
21.491 15.974 664.09 
21.491 16.066 664.1 
21.492 16.157 664.13 
21.493 16.247 664.15 
21.493 16.338 664.16 
21.493 16.429 664.17 
21.494 16.52 664.2 
21.495 16.612 664.23 
21.496 16.703 664.26 
21.497 16.794 664.27 
21.497 16.885 664.29 
21.498 16.976 664.3 
21.499 17.068 664.33 
21.5 17.16 664.37 
21.501 17.252 664.41 
21.502 17.343 664.44 
21.503 17.434 664.47 
21.504 17.526 664.5 
21.504 17.616 664.51 
21.505 17.707 664.53 
21.506 17.799 664.56 
21.507 17.891 664.59 
21.508 17.982 664.63 
21.509 18.073 664.64 
21.51 18.164 664.68 
21.511 18.256 664.72 
21.513 18.349 664.77 
21.514 18.44 664.8 
21.514 18.531 664.82 
21.515 18.623 664.85 
21.517 18.715 664.9 
21.518 18.807 664.93 
21.519 18.899 664.96 
21.52 18.991 665.01 
21.521 19.082 665.04 
21.522 19.174 665.07 
21.524 19.266 665.12 
21.525 19.358 665.16 
21.527 19.449 665.21 
21.528 19.541 665.24 
21.529 19.632 665.27 
21.53 19.725 665.31 
21.532 19.817 665.36 
21.533 19.908 665.4 
21.534 20 665.43 
21.536 20.093 665.49 
21.537 20.185 665.52 
21.538 20.276 665.54 
21.539 20.368 665.59 
21.542 20.461 665.66 
21.544 20.555 665.72 
21.545 20.647 665.76 
21.546 20.738 665.79 
21.547 20.83 665.84 
21.549 20.922 665.89 
21.551 21.015 665.95 
21.553 21.108 666.01 
21.554 21.201 666.05 
21.556 21.294 666.11 
21.558 21.386 666.16 
21.559 21.478 666.21 
21.561 21.571 666.27 
21.563 21.664 666.33 
21.565 21.758 666.38 
21.567 21.851 666.44 
21.568 21.943 666.49 
21.571 22.035 666.55 
21.573 22.129 666.62 
21.574 22.221 666.67 
21.576 22.314 666.72 
21.578 22.406 666.78 
21.58 22.499 666.84 
21.582 22.592 666.91 
21.584 22.686 666.97 
21.587 22.78 667.05 
21.589 22.873 667.13 
21.591 22.966 667.19 
21.593 23.059 667.25 
21.595 23.153 667.31 
21.597 23.247 667.37 
21.599 23.34 667.44 
21.602 23.433 667.52 
21.605 23.527 667.62 
21.607 23.621 667.69 
21.609 23.715 667.74 
21.611 23.808 667.82 
21.614 23.901 667.9 
21.616 23.994 667.97 
21.619 24.089 668.05 
21.621 24.183 668.12 
21.624 24.279 668.21 
21.627 24.373 668.3 
21.63 24.466 668.38 
21.633 24.56 668.47 
21.635 24.654 668.55 
21.638 24.748 668.65 
21.641 24.842 668.73 
21.644 24.938 668.83 
21.646 25.033 668.9 
21.649 25.128 668.99 
21.653 25.223 669.1 
21.656 25.318 669.21 
21.66 25.413 669.31 
21.663 25.506 669.4 
21.666 25.601 669.49 
21.669 25.696 669.59 
21.672 25.792 669.7 
21.676 25.888 669.81 
21.679 25.983 669.91 
21.682 26.078 670.01 
21.686 26.174 670.12 
21.689 26.27 670.22 
21.692 26.367 670.32 
21.696 26.461 670.42 
21.7 26.557 670.56 
21.704 26.653 670.67 
21.708 26.75 670.8 
21.711 26.846 670.9 
21.715 26.942 671.03 
21.72 27.04 671.18 
21.724 27.136 671.31 
21.728 27.232 671.41 
21.732 27.33 671.55 
21.737 27.427 671.71 
21.742 27.525 671.85 
21.747 27.622 672.01 
21.752 27.719 672.15 
21.756 27.817 672.29 
21.76 27.915 672.42 
21.766 28.014 672.58 
21.771 28.113 672.75 
21.777 28.212 672.93 
21.782 28.311 673.1 
21.787 28.408 673.25 
21.792 28.507 673.41 
21.799 28.607 673.6 
21.805 28.708 673.8 
21.812 28.809 674.02 
21.819 28.908 674.22 
21.825 29.008 674.42 
21.832 29.11 674.65 
21.84 29.212 674.88 
21.847 29.313 675.08 
21.856 29.418 675.38 
21.865 29.523 675.65 
21.871 29.623 675.84 
21.986 -5.9674 676.55 
21.98 -5.875 676.38 
21.97 -5.7796 676.07 
21.961 -5.6819 675.77 
21.951 -5.5868 675.48 
21.945 -5.4962 675.3 
21.94 -5.4039 675.13 
21.932 -5.3089 674.91 
21.924 -5.2139 674.65 
21.917 -5.1215 674.44 
21.912 -5.0274 674.29 
21.905 -4.9347 674.07 
21.9 -4.8417 673.91 
21.894 -4.7483 673.73 
21.889 -4.656 673.57 
21.883 -4.5631 673.39 
21.878 -4.4703 673.22 
21.872 -4.3773 673.04 
21.867 -4.2834 672.89 
21.863 -4.1916 672.76 
21.857 -4.0985 672.58 
21.852 -4.0056 672.42 
21.848 -3.9129 672.31 
21.842 -3.8195 672.13 
21.838 -3.728 672 
21.833 -3.6354 671.83 
21.829 -3.5441 671.72 
21.826 -3.4524 671.62 
21.822 -3.3604 671.5 
21.817 -3.2665 671.36 
21.813 -3.1753 671.22 
21.809 -3.0833 671.1 
21.805 -2.991 670.99 
21.801 -2.8977 670.84 
21.797 -2.8056 670.75 
21.794 -2.7137 670.65 
21.79 -2.6242 670.51 
21.786 -2.5317 670.41 
21.783 -2.4394 670.29 
21.779 -2.3477 670.17 
21.776 -2.2551 670.08 
21.772 -2.161 669.97 
21.77 -2.0698 669.9 
21.767 -1.9791 669.8 
21.763 -1.8881 669.69 
21.76 -1.7953 669.59 
21.756 -1.7048 669.48 
21.753 -1.6135 669.39 
21.75 -1.5212 669.29 
21.747 -1.4298 669.21 
21.745 -1.3388 669.13 
21.742 -1.2476 669.04 
21.739 -1.1564 668.95 
21.736 -1.0655 668.86 
21.733 -0.97257 668.76 
21.73 -0.88112 668.67 
21.727 -0.79027 668.57 
21.724 -0.69966 668.48 
21.721 -0.60848 668.41 
21.72 -0.51614 668.35 
21.716 -0.42357 668.25 
21.714 -0.33404 668.19 
21.712 -0.24354 668.11 
21.709 -0.15344 668.04 
21.707 -0.062607 667.96 
21.705 0.02884 667.89 
21.702 0.11934 667.82 
21.7 0.21175 667.74 
21.697 0.30387 667.66 
21.695 0.39528 667.59 
21.692 0.48537 667.51 
21.69 0.57702 667.45 
21.688 0.66688 667.37 
21.686 0.75751 667.31 
21.684 0.84761 667.26 
21.682 0.93885 667.2 
21.68 1.0298 667.13 
21.677 1.1212 667.05 
21.675 1.2119 667 
21.674 1.3034 666.95 
21.672 1.3954 666.88 
21.67 1.4866 666.81 
21.667 1.5761 666.74 
21.665 1.6661 666.68 
21.664 1.7564 666.63 
21.662 1.8475 666.58 
21.66 1.9387 666.51 
21.658 2.0291 666.46 
21.656 2.12 666.4 
21.654 2.2112 666.34 
21.653 2.302 666.29 
21.651 2.3925 666.24 
21.649 2.4837 666.18 
21.647 2.5752 666.13 
21.646 2.6649 666.08 
21.644 2.7556 666.03 
21.642 2.8461 665.97 
21.64 2.9361 665.91 
21.639 3.0261 665.88 
21.638 3.117 665.83 
21.637 3.2085 665.79 
21.635 3.2988 665.75 
21.633 3.3891 665.68 
21.631 3.4799 665.63 
21.63 3.5716 665.59 
21.629 3.6616 665.55 
21.627 3.7527 665.51 
21.626 3.8423 665.47 
21.625 3.9322 665.43 
21.623 4.0221 665.39 
21.622 4.1138 665.34 
21.621 4.2047 665.3 
21.619 4.2956 665.25 
21.618 4.3862 665.22 
21.617 4.4759 665.18 
21.616 4.5661 665.15 
21.615 4.6557 665.12 
21.613 4.7465 665.07 
21.611 4.8374 665.01 
21.611 4.9276 665 
21.61 5.0182 664.97 
21.608 5.109 664.93 
21.607 5.199 664.9 
21.606 5.2902 664.86 
21.605 5.3805 664.81 
21.603 5.4705 664.77 
21.603 5.5617 664.76 
21.601 5.6515 664.72 
21.6 5.7418 664.68 
21.599 5.8328 664.65 
21.599 5.9232 664.64 
21.597 6.013 664.58 
21.597 6.1041 664.57 
21.596 6.1937 664.54 
21.595 6.2842 664.51 
21.594 6.3746 664.49 
21.593 6.4653 664.46 
21.592 6.5546 664.42 
21.591 6.6454 664.4 
21.591 6.7368 664.4 
21.59 6.8267 664.38 
21.589 6.9167 664.34 
21.588 7.0079 664.29 
21.587 7.0989 664.27 
21.586 7.1889 664.25 
21.586 7.278 664.23 
21.585 7.3685 664.21 
21.584 7.4592 664.19 
21.584 7.5495 664.16 
21.583 7.6399 664.15 
21.582 7.7301 664.12 
21.582 7.8211 664.1 
21.581 7.9116 664.09 
21.581 8.0026 664.07 
21.58 8.0926 664.05 
21.579 8.1826 664.03 
21.579 8.2732 664.02 
21.579 8.3631 664.01 
21.577 8.4532 663.97 
21.577 8.5434 663.95 
21.576 8.6337 663.94 
21.576 8.7246 663.92 
21.575 8.8158 663.91 
21.575 8.9059 663.91 
21.575 8.9964 663.9 
21.574 9.087 663.87 
21.573 9.1789 663.85 
21.573 9.2688 663.84 
21.573 9.3584 663.84 
21.573 9.4499 663.84 
21.573 9.5401 663.82 
21.572 9.6306 663.8 
21.572 9.7215 663.8 
21.571 9.8122 663.79 
21.57 9.9027 663.76 
21.57 9.9935 663.73 
21.57 10.083 663.74 
21.57 10.174 663.76 
21.57 10.265 663.75 
21.569 10.355 663.73 
21.569 10.445 663.72 
21.57 10.535 663.75 
21.572 10.623 663.79 
21.572 10.713 663.81 
21.572 10.801 663.8 
21.572 10.889 663.8 
21.572 10.978 663.81 
21.572 11.066 663.8 
21.57 11.163 663.76 
21.569 11.264 663.71 
21.568 11.984 663.68 
21.566 12.071 663.63 
21.567 12.163 663.65 
21.568 12.253 663.68 
21.569 12.341 663.72 
21.57 12.432 663.74 
21.57 12.524 663.75 
21.57 12.614 663.75 
21.57 12.705 663.75 
21.57 12.795 663.73 
21.569 12.884 663.7 
21.568 12.973 663.68 
21.568 13.064 663.69 
21.569 13.157 663.71 
21.569 13.248 663.72 
21.569 13.337 663.71 
21.568 13.427 663.7 
21.569 13.519 663.72 
21.57 13.611 663.74 
21.571 13.702 663.77 
21.571 13.793 663.77 
21.571 13.883 663.78 
21.571 13.974 663.78 
21.572 14.065 663.8 
21.572 14.156 663.81 
21.572 14.246 663.81 
21.572 14.337 663.82 
21.573 14.428 663.84 
21.573 14.519 663.85 
21.574 14.61 663.87 
21.574 14.701 663.86 
21.574 14.791 663.88 
21.575 14.881 663.89 
21.575 14.972 663.9 
21.576 15.064 663.92 
21.576 15.155 663.93 
21.577 15.246 663.94 
21.577 15.337 663.95 
21.577 15.428 663.97 
21.578 15.52 663.99 
21.579 15.612 664.02 
21.58 15.703 664.04 
21.58 15.794 664.06 
21.58 15.883 664.06 
21.581 15.974 664.09 
21.582 16.066 664.12 
21.583 16.157 664.13 
21.583 16.247 664.16 
21.584 16.338 664.17 
21.584 16.429 664.19 
21.586 16.521 664.22 
21.586 16.612 664.24 
21.587 16.703 664.26 
21.587 16.794 664.28 
21.588 16.885 664.31 
21.589 16.976 664.32 
21.59 17.069 664.35 
21.591 17.161 664.38 
21.592 17.252 664.42 
21.593 17.344 664.44 
21.594 17.435 664.48 
21.594 17.525 664.49 
21.595 17.616 664.52 
21.596 17.707 664.55 
21.597 17.8 664.58 
21.599 17.891 664.62 
21.6 17.983 664.66 
21.6 18.073 664.67 
21.601 18.165 664.7 
21.603 18.257 664.75 
21.604 18.35 664.79 
21.605 18.441 664.81 
21.605 18.531 664.83 
21.607 18.623 664.86 
21.608 18.716 664.9 
21.609 18.808 664.94 
21.61 18.9 664.97 
21.612 18.992 665.02 
21.613 19.084 665.06 
21.613 19.174 665.07 
21.615 19.265 665.13 
21.616 19.357 665.17 
21.618 19.449 665.21 
21.619 19.542 665.25 
21.62 19.632 665.27 
21.621 19.724 665.31 
21.622 19.817 665.35 
21.624 19.909 665.4 
21.625 19.999 665.43 
21.627 20.092 665.48 
21.628 20.185 665.53 
21.629 20.277 665.56 
21.631 20.369 665.62 
21.633 20.461 665.67 
21.635 20.554 665.73 
21.636 20.647 665.77 
21.637 20.739 665.81 
21.638 20.83 665.85 
21.64 20.922 665.9 
21.642 21.015 665.96 
21.644 21.108 666.02 
21.646 21.201 666.08 
21.647 21.294 666.12 
21.649 21.387 666.17 
21.651 21.479 666.23 
21.653 21.572 666.29 
21.655 21.666 666.35 
21.656 21.758 666.39 
21.658 21.851 666.43 
21.66 21.944 666.51 
21.662 22.036 666.56 
21.663 22.128 666.61 
21.665 22.221 666.66 
21.667 22.314 666.73 
21.669 22.407 666.8 
21.671 22.499 666.85 
21.673 22.592 666.92 
21.675 22.686 666.98 
21.678 22.78 667.05 
21.68 22.874 667.14 
21.683 22.967 667.21 
21.685 23.06 667.27 
21.687 23.154 667.34 
21.689 23.247 667.41 
21.691 23.341 667.47 
21.693 23.434 667.53 
21.696 23.526 667.61 
21.698 23.621 667.68 
21.7 23.715 667.75 
21.703 23.808 667.82 
21.705 23.901 667.9 
21.708 23.995 667.99 
21.711 24.09 668.08 
21.714 24.184 668.16 
21.716 24.279 668.24 
21.719 24.373 668.31 
21.721 24.466 668.39 
21.724 24.56 668.47 
21.727 24.655 668.57 
21.73 24.749 668.66 
21.733 24.843 668.75 
21.735 24.938 668.83 
21.738 25.033 668.91 
21.741 25.128 669.01 
21.744 25.223 669.11 
21.748 25.318 669.21 
21.751 25.413 669.31 
21.754 25.507 669.41 
21.757 25.601 669.51 
21.761 25.697 669.61 
21.765 25.793 669.73 
21.768 25.889 669.84 
21.772 25.985 669.95 
21.775 26.08 670.04 
21.778 26.175 670.14 
21.782 26.271 670.25 
21.785 26.367 670.35 
21.788 26.462 670.45 
21.792 26.558 670.57 
21.796 26.655 670.69 
21.8 26.752 670.81 
21.803 26.847 670.9 
21.808 26.944 671.05 
21.812 27.041 671.2 
21.816 27.137 671.31 
21.82 27.232 671.42 
21.824 27.33 671.56 
21.829 27.428 671.72 
21.834 27.525 671.86 
21.839 27.622 672.01 
21.844 27.721 672.16 
21.849 27.82 672.31 
21.853 27.916 672.44 
21.858 28.014 672.59 
21.864 28.114 672.78 
21.87 28.214 672.98 
21.876 28.313 673.15 
21.881 28.409 673.3 
21.886 28.507 673.46 
21.893 28.609 673.67 
21.9 28.711 673.88 
21.905 28.81 674.06 
21.911 28.908 674.22 
21.917 29.008 674.41 
21.925 29.111 674.67 
21.932 29.212 674.89 
21.94 29.314 675.13 
21.949 29.418 675.42 
21.958 29.524 675.69 
21.966 29.626 675.91 
22.081 -5.968 676.63 
22.073 -5.8722 676.38 
22.065 -5.7783 676.13 
22.054 -5.6838 675.8 
22.045 -5.5889 675.54 
22.04 -5.4954 675.37 
22.034 -5.4016 675.19 
22.027 -5.3091 674.97 
22.018 -5.2155 674.7 
22.011 -5.122 674.48 
22.005 -5.0281 674.31 
21.998 -4.9358 674.1 
21.992 -4.8405 673.92 
21.987 -4.7492 673.76 
21.982 -4.6562 673.61 
21.976 -4.563 673.4 
21.97 -4.4685 673.23 
21.965 -4.3777 673.09 
21.96 -4.2848 672.92 
21.954 -4.1904 672.73 
21.949 -4.0972 672.6 
21.944 -4.0064 672.44 
21.94 -3.9134 672.32 
21.935 -3.8202 672.16 
21.931 -3.7281 672.03 
21.925 -3.6356 671.87 
21.922 -3.545 671.76 
21.918 -3.4521 671.64 
21.914 -3.3598 671.52 
21.909 -3.2666 671.37 
21.905 -3.1743 671.25 
21.901 -3.0822 671.12 
21.898 -2.9909 671.02 
21.893 -2.8976 670.86 
21.889 -2.8052 670.75 
21.886 -2.7147 670.65 
21.882 -2.6241 670.53 
21.878 -2.5308 670.4 
21.874 -2.4395 670.29 
21.87 -2.3474 670.17 
21.868 -2.2551 670.09 
21.865 -2.1616 670.01 
21.862 -2.0702 669.92 
21.858 -1.9787 669.8 
21.854 -1.8876 669.69 
21.851 -1.7953 669.59 
21.848 -1.7041 669.5 
21.845 -1.6124 669.39 
21.842 -1.5215 669.29 
21.839 -1.4306 669.22 
21.837 -1.3385 669.14 
21.833 -1.2476 669.05 
21.83 -1.1564 668.95 
21.827 -1.0651 668.86 
21.824 -0.9738 668.77 
21.822 -0.88146 668.69 
21.819 -0.79074 668.6 
21.816 -0.69995 668.5 
21.813 -0.60777 668.42 
21.811 -0.51651 668.35 
21.808 -0.42552 668.26 
21.806 -0.3341 668.2 
21.804 -0.24354 668.13 
21.801 -0.15295 668.06 
21.799 -0.061213 667.98 
21.797 0.029903 667.92 
21.793 0.12058 667.82 
21.791 0.21202 667.76 
21.789 0.30312 667.69 
21.787 0.39464 667.61 
21.784 0.4859 667.52 
21.782 0.57743 667.46 
21.779 0.66851 667.38 
21.777 0.75824 667.33 
21.775 0.84823 667.27 
21.774 0.93916 667.22 
21.771 1.0308 667.13 
21.769 1.1217 667.07 
21.767 1.2129 667.02 
21.766 1.3047 666.97 
21.764 1.3955 666.91 
21.762 1.4867 666.85 
21.76 1.5769 666.78 
21.757 1.667 666.71 
21.755 1.757 666.65 
21.753 1.8481 666.58 
21.751 1.9388 666.53 
21.749 2.0296 666.47 
21.748 2.1203 666.42 
21.746 2.2113 666.36 
21.744 2.3019 666.3 
21.742 2.3933 666.24 
21.74 2.483 666.19 
21.738 2.5735 666.13 
21.737 2.6647 666.09 
21.736 2.7555 666.05 
21.734 2.8461 666.01 
21.732 2.9361 665.94 
21.73 3.026 665.89 
21.73 3.1166 665.86 
21.728 3.2078 665.82 
21.726 3.2983 665.76 
21.724 3.388 665.7 
21.723 3.48 665.65 
21.721 3.5714 665.6 
21.72 3.6617 665.57 
21.718 3.7518 665.52 
21.717 3.842 665.48 
21.716 3.9325 665.45 
21.714 4.0225 665.4 
21.713 4.1143 665.35 
21.712 4.2051 665.32 
21.71 4.2956 665.27 
21.709 4.3857 665.24 
21.707 4.4762 665.18 
21.706 4.5666 665.15 
21.705 4.6562 665.12 
21.704 4.7468 665.08 
21.703 4.8372 665.04 
21.702 4.9278 665.01 
21.701 5.018 664.97 
21.699 5.1081 664.94 
21.698 5.1986 664.9 
21.697 5.2899 664.87 
21.696 5.3801 664.83 
21.694 5.4705 664.78 
21.694 5.5618 664.76 
21.693 5.6515 664.73 
21.692 5.7425 664.7 
21.691 5.8329 664.67 
21.69 5.9237 664.64 
21.688 6.0135 664.6 
21.687 6.1041 664.57 
21.687 6.1945 664.55 
21.686 6.2844 664.53 
21.685 6.3743 664.48 
21.684 6.4649 664.47 
21.683 6.5546 664.44 
21.683 6.6455 664.43 
21.682 6.7366 664.4 
21.681 6.8272 664.38 
21.68 6.9166 664.34 
21.679 7.0073 664.31 
21.678 7.0985 664.29 
21.677 7.1886 664.26 
21.677 7.2777 664.24 
21.676 7.3684 664.22 
21.675 7.4588 664.19 
21.674 7.549 664.17 
21.674 7.6391 664.15 
21.672 7.7301 664.11 
21.672 7.8211 664.11 
21.672 7.9121 664.1 
21.672 8.0029 664.09 
21.67 8.0927 664.05 
21.67 8.1829 664.03 
21.67 8.2728 664.02 
21.669 8.363 664.01 
21.668 8.453 663.98 
21.667 8.5433 663.96 
21.666 8.6337 663.93 
21.666 8.7249 663.93 
21.667 8.8163 663.93 
21.666 8.9063 663.93 
21.666 8.9968 663.9 
21.665 9.0877 663.88 
21.664 9.1788 663.86 
21.664 9.2683 663.85 
21.664 9.3578 663.84 
21.663 9.449 663.84 
21.663 9.5398 663.83 
21.662 9.6307 663.8 
21.662 9.7212 663.8 
21.662 9.8119 663.78 
21.66 9.9022 663.74 
21.66 9.9935 663.71 
21.659 10.084 663.71 
21.66 10.174 663.72 
21.66 10.264 663.71 
21.659 10.354 663.71 
21.66 10.445 663.72 
21.661 10.534 663.75 
21.662 10.624 663.8 
21.663 10.713 663.83 
21.663 10.802 663.83 
21.664 10.891 663.86 
21.663 10.981 663.82 
21.661 11.065 663.75 
21.657 11.155 663.63 
21.655 11.261 663.57 
21.663 12.253 663.83 
21.665 12.342 663.87 
21.663 12.435 663.83 
21.662 12.525 663.78 
21.66 12.614 663.74 
21.66 12.704 663.73 
21.66 12.795 663.72 
21.659 12.884 663.69 
21.658 12.973 663.67 
21.659 13.065 663.69 
21.66 13.158 663.71 
21.66 13.248 663.73 
21.66 13.338 663.73 
21.66 13.428 663.73 
21.661 13.521 663.75 
21.662 13.612 663.78 
21.662 13.702 663.79 
21.662 13.793 663.78 
21.662 13.884 663.79 
21.662 13.975 663.79 
21.663 14.066 663.81 
21.663 14.156 663.82 
21.663 14.246 663.81 
21.663 14.337 663.83 
21.664 14.428 663.85 
21.664 14.519 663.85 
21.664 14.61 663.85 
21.664 14.701 663.86 
21.665 14.792 663.88 
21.666 14.882 663.91 
21.667 14.974 663.93 
21.667 15.065 663.93 
21.667 15.156 663.94 
21.667 15.246 663.96 
21.668 15.337 663.96 
21.668 15.428 663.98 
21.669 15.519 663.99 
21.67 15.611 664.02 
21.67 15.703 664.05 
21.671 15.794 664.07 
21.671 15.884 664.07 
21.672 15.975 664.09 
21.673 16.066 664.11 
21.673 16.156 664.13 
21.674 16.248 664.16 
21.675 16.339 664.18 
21.675 16.43 664.19 
21.676 16.521 664.22 
21.677 16.612 664.25 
21.678 16.703 664.27 
21.678 16.794 664.29 
21.679 16.885 664.31 
21.68 16.977 664.35 
21.681 17.069 664.37 
21.682 17.16 664.4 
21.683 17.252 664.43 
21.684 17.344 664.45 
21.685 17.434 664.48 
21.686 17.525 664.52 
21.687 17.616 664.54 
21.688 17.708 664.57 
21.689 17.8 664.6 
21.69 17.892 664.64 
21.69 17.983 664.66 
21.691 18.074 664.69 
21.692 18.165 664.72 
21.694 18.257 664.75 
21.695 18.35 664.81 
21.696 18.441 664.82 
21.697 18.532 664.85 
21.698 18.624 664.89 
21.699 18.716 664.92 
21.7 18.808 664.95 
21.701 18.9 664.99 
21.702 18.992 665.02 
21.704 19.083 665.06 
21.705 19.173 665.09 
21.706 19.265 665.14 
21.707 19.357 665.18 
21.709 19.449 665.21 
21.71 19.541 665.24 
21.711 19.633 665.29 
21.712 19.725 665.33 
21.714 19.818 665.37 
21.715 19.909 665.41 
21.716 20.001 665.46 
21.718 20.093 665.49 
21.719 20.185 665.52 
21.72 20.278 665.57 
21.722 20.37 665.62 
21.724 20.462 665.69 
21.726 20.554 665.74 
21.728 20.647 665.79 
21.729 20.739 665.84 
21.73 20.831 665.87 
21.732 20.923 665.92 
21.733 21.016 665.97 
21.735 21.108 666.03 
21.737 21.202 666.08 
21.739 21.295 666.15 
21.74 21.387 666.19 
21.742 21.479 666.23 
21.744 21.573 666.29 
21.746 21.666 666.35 
21.748 21.758 666.41 
21.749 21.851 666.46 
21.751 21.943 666.51 
21.753 22.035 666.57 
21.755 22.128 666.62 
21.757 22.221 666.69 
21.759 22.315 666.77 
21.761 22.408 666.83 
21.763 22.5 666.88 
21.765 22.593 666.93 
21.767 22.686 667 
21.77 22.781 667.08 
21.772 22.875 667.15 
21.774 22.967 667.21 
21.776 23.061 667.28 
21.778 23.154 667.35 
21.781 23.248 667.42 
21.783 23.341 667.49 
21.785 23.434 667.54 
21.787 23.527 667.62 
21.79 23.621 667.7 
21.792 23.715 667.76 
21.795 23.809 667.85 
21.797 23.901 667.93 
21.8 23.995 668.02 
21.802 24.089 668.09 
21.805 24.184 668.17 
21.808 24.279 668.26 
21.811 24.373 668.34 
21.813 24.466 668.41 
21.815 24.559 668.49 
21.818 24.655 668.58 
21.822 24.749 668.67 
21.824 24.843 668.75 
21.827 24.937 668.83 
21.83 25.034 668.93 
21.833 25.129 669.03 
21.836 25.224 669.11 
21.839 25.318 669.21 
21.843 25.413 669.32 
21.846 25.508 669.43 
21.849 25.603 669.52 
21.853 25.698 669.62 
21.856 25.794 669.73 
21.86 25.89 669.85 
21.863 25.985 669.94 
21.866 26.081 670.04 
21.87 26.176 670.16 
21.873 26.272 670.26 
21.877 26.368 670.37 
21.881 26.463 670.49 
21.885 26.56 670.61 
21.889 26.657 670.73 
21.892 26.754 670.84 
21.896 26.849 670.94 
21.9 26.946 671.08 
21.904 27.041 671.2 
21.908 27.137 671.32 
21.911 27.232 671.43 
21.916 27.33 671.58 
21.922 27.429 671.74 
21.926 27.526 671.88 
21.931 27.624 672.02 
21.936 27.723 672.17 
21.94 27.82 672.3 
21.945 27.917 672.45 
21.95 28.015 672.62 
21.956 28.115 672.8 
21.962 28.214 672.98 
21.968 28.313 673.17 
21.974 28.411 673.35 
21.98 28.51 673.52 
21.986 28.61 673.71 
21.993 28.712 673.92 
21.999 28.811 674.1 
22.004 28.911 674.26 
22.011 29.01 674.46 
22.019 29.112 674.71 
22.026 29.214 674.94 
22.033 29.316 675.16 
22.043 29.42 675.46 
22.053 29.525 675.75 
22.06 29.627 675.98 
22.175 -5.9688 676.69 
22.167 -5.8725 676.45 
22.157 -5.7782 676.14 
22.147 -5.6837 675.83 
22.139 -5.5899 675.6 
22.133 -5.4957 675.41 
22.127 -5.4035 675.22 
22.118 -5.3091 674.96 
22.11 -5.2167 674.7 
22.103 -5.1211 674.49 
22.098 -5.0271 674.33 
22.092 -4.9341 674.14 
22.085 -4.8405 673.93 
22.08 -4.7464 673.79 
22.075 -4.6563 673.63 
22.068 -4.5632 673.41 
22.062 -4.469 673.23 
22.057 -4.376 673.09 
22.052 -4.285 672.94 
22.047 -4.1906 672.79 
22.042 -4.0972 672.62 
22.037 -4.0056 672.47 
22.033 -3.9133 672.35 
22.027 -3.8204 672.18 
22.023 -3.7274 672.04 
22.019 -3.6363 671.93 
22.015 -3.5453 671.82 
22.01 -3.4522 671.67 
22.006 -3.3594 671.52 
22.002 -3.2676 671.39 
21.998 -3.1743 671.27 
21.993 -3.0823 671.14 
21.99 -2.9902 671.03 
21.984 -2.8986 670.87 
21.981 -2.8057 670.76 
21.977 -2.7148 670.65 
21.974 -2.6235 670.55 
21.969 -2.5316 670.41 
21.966 -2.4391 670.32 
21.962 -2.3467 670.2 
21.959 -2.2552 670.11 
21.957 -2.1631 670.03 
21.954 -2.0712 669.94 
21.95 -1.98 669.82 
21.947 -1.8883 669.72 
21.943 -1.7961 669.61 
21.94 -1.7041 669.51 
21.936 -1.614 669.4 
21.933 -1.5229 669.3 
21.931 -1.4316 669.25 
21.928 -1.3398 669.14 
21.925 -1.2482 669.06 
21.921 -1.1566 668.95 
21.919 -1.0651 668.86 
21.916 -0.97411 668.78 
21.913 -0.88242 668.7 
21.911 -0.79119 668.62 
21.908 -0.69928 668.54 
21.905 -0.60777 668.45 
21.903 -0.51714 668.38 
21.899 -0.42609 668.27 
21.897 -0.33468 668.21 
21.895 -0.24307 668.14 
21.893 -0.15177 668.08 
21.891 -0.061135 668.01 
21.888 0.02963 667.93 
21.886 0.12034 667.86 
21.883 0.21213 667.77 
21.88 0.30321 667.7 
21.878 0.39404 667.62 
21.875 0.48475 667.54 
21.873 0.57703 667.48 
21.871 0.66864 667.42 
21.869 0.75918 667.36 
21.867 0.84963 667.29 
21.865 0.94057 667.22 
21.863 1.0316 667.16 
21.86 1.1219 667.07 
21.859 1.2134 667.04 
21.857 1.3042 666.98 
21.855 1.3957 666.92 
21.853 1.4858 666.86 
21.851 1.5769 666.8 
21.849 1.6674 666.72 
21.847 1.7577 666.68 
21.845 1.8488 666.6 
21.843 1.9394 666.54 
21.841 2.0294 666.49 
21.839 2.1204 666.44 
21.837 2.212 666.38 
21.835 2.3022 666.31 
21.833 2.3927 666.26 
21.832 2.4823 666.22 
21.83 2.5729 666.16 
21.828 2.6642 666.1 
21.827 2.7551 666.05 
21.825 2.8457 666.01 
21.823 2.9363 665.95 
21.821 3.026 665.89 
21.82 3.1163 665.85 
21.819 3.2073 665.82 
21.817 3.2986 665.76 
21.816 3.3886 665.72 
21.814 3.4801 665.67 
21.813 3.5705 665.64 
21.811 3.6611 665.59 
21.81 3.7511 665.54 
21.809 3.8416 665.5 
21.807 3.9329 665.46 
21.806 4.0225 665.41 
21.804 4.1138 665.36 
21.803 4.2043 665.32 
21.802 4.2957 665.3 
21.8 4.3863 665.25 
21.798 4.4762 665.19 
21.797 4.5669 665.15 
21.796 4.6566 665.13 
21.795 4.7471 665.09 
21.794 4.8386 665.07 
21.793 4.9283 665.03 
21.792 5.0183 664.99 
21.79 5.1088 664.94 
21.789 5.1997 664.9 
21.788 5.29 664.88 
21.787 5.3802 664.84 
21.785 5.4707 664.8 
21.784 5.5616 664.76 
21.783 5.6519 664.73 
21.783 5.7423 664.71 
21.782 5.8331 664.68 
21.78 5.9237 664.64 
21.779 6.0129 664.6 
21.778 6.1038 664.57 
21.778 6.1951 664.57 
21.777 6.2851 664.54 
21.776 6.3745 664.51 
21.775 6.4648 664.48 
21.774 6.5558 664.46 
21.774 6.6456 664.43 
21.773 6.736 664.4 
21.772 6.8266 664.38 
21.771 6.917 664.35 
21.77 7.0078 664.33 
21.769 7.098 664.31 
21.768 7.1898 664.27 
21.768 7.2791 664.25 
21.767 7.3691 664.23 
21.766 7.4592 664.21 
21.765 7.5494 664.19 
21.764 7.6392 664.15 
21.763 7.73 664.12 
21.763 7.8203 664.12 
21.763 7.9124 664.12 
21.763 8.0026 664.11 
21.762 8.0927 664.07 
21.761 8.1825 664.05 
21.76 8.2728 664.02 
21.76 8.3626 664.01 
21.759 8.4526 663.99 
21.758 8.5433 663.97 
21.758 8.634 663.95 
21.758 8.7253 663.95 
21.758 8.817 663.94 
21.757 8.9068 663.93 
21.756 8.9968 663.9 
21.756 9.0869 663.89 
21.755 9.1786 663.87 
21.755 9.2685 663.86 
21.754 9.3583 663.84 
21.754 9.4486 663.83 
21.753 9.5399 663.81 
21.753 9.6309 663.8 
21.753 9.7211 663.8 
21.752 9.8113 663.79 
21.752 9.9021 663.77 
21.751 9.9944 663.74 
21.75 10.085 663.72 
21.75 10.174 663.71 
21.749 10.263 663.69 
21.75 10.354 663.7 
21.751 10.445 663.73 
21.752 10.535 663.77 
21.753 10.625 663.81 
21.755 10.714 663.87 
21.756 10.804 663.89 
21.755 10.893 663.87 
21.752 10.98 663.76 
21.747 11.058 663.64 
21.743 11.141 663.52 
21.756 12.252 663.91 
21.758 12.344 663.97 
21.756 12.437 663.91 
21.754 12.525 663.83 
21.752 12.614 663.77 
21.751 12.705 663.75 
21.75 12.794 663.72 
21.749 12.884 663.68 
21.748 12.975 663.67 
21.749 13.067 663.68 
21.75 13.157 663.7 
21.75 13.246 663.72 
21.75 13.337 663.73 
21.751 13.429 663.73 
21.751 13.52 663.75 
21.752 13.611 663.76 
21.752 13.702 663.78 
21.752 13.792 663.78 
21.752 13.883 663.78 
21.753 13.975 663.79 
21.753 14.066 663.81 
21.754 14.156 663.83 
21.754 14.245 663.82 
21.754 14.337 663.83 
21.754 14.428 663.84 
21.755 14.52 663.86 
21.755 14.61 663.86 
21.755 14.701 663.88 
21.756 14.793 663.89 
21.756 14.883 663.91 
21.757 14.974 663.94 
21.757 15.065 663.94 
21.757 15.155 663.94 
21.758 15.245 663.95 
21.758 15.337 663.97 
21.759 15.428 663.99 
21.76 15.519 664.01 
21.76 15.61 664.03 
21.761 15.702 664.04 
21.762 15.794 664.07 
21.762 15.884 664.08 
21.763 15.975 664.1 
21.764 16.066 664.13 
21.765 16.157 664.16 
21.765 16.248 664.17 
21.765 16.339 664.18 
21.766 16.43 664.19 
21.767 16.521 664.22 
21.768 16.612 664.25 
21.769 16.703 664.28 
21.77 16.794 664.31 
21.771 16.885 664.34 
21.771 16.977 664.35 
21.772 17.069 664.37 
21.773 17.161 664.41 
21.774 17.252 664.44 
21.775 17.344 664.46 
21.775 17.434 664.49 
21.777 17.524 664.52 
21.777 17.617 664.55 
21.779 17.708 664.59 
21.78 17.8 664.62 
21.78 17.891 664.64 
21.781 17.982 664.65 
21.782 18.074 664.69 
21.783 18.166 664.73 
21.785 18.258 664.77 
21.786 18.35 664.8 
21.787 18.441 664.83 
21.788 18.533 664.86 
21.789 18.625 664.9 
21.79 18.717 664.94 
21.791 18.808 664.96 
21.792 18.9 664.99 
21.793 18.991 665.02 
21.794 19.083 665.06 
21.795 19.173 665.09 
21.797 19.265 665.14 
21.798 19.358 665.19 
21.8 19.451 665.23 
21.801 19.542 665.25 
21.802 19.633 665.29 
21.804 19.725 665.34 
21.805 19.818 665.38 
21.806 19.91 665.41 
21.807 20.001 665.45 
21.808 20.093 665.49 
21.81 20.186 665.53 
21.812 20.278 665.59 
21.813 20.369 665.63 
21.815 20.462 665.69 
21.817 20.554 665.74 
21.818 20.647 665.8 
21.82 20.739 665.84 
21.821 20.831 665.89 
21.823 20.924 665.94 
21.824 21.016 665.98 
21.826 21.109 666.02 
21.828 21.202 666.09 
21.83 21.295 666.14 
21.831 21.387 666.19 
21.833 21.48 666.24 
21.835 21.572 666.3 
21.837 21.666 666.37 
21.839 21.759 666.43 
21.841 21.851 666.48 
21.842 21.943 666.53 
21.844 22.035 666.59 
21.847 22.128 666.65 
21.849 22.222 666.72 
21.851 22.316 666.79 
21.853 22.409 666.85 
21.854 22.501 666.89 
21.856 22.593 666.94 
21.858 22.686 667.02 
21.861 22.781 667.09 
21.863 22.875 667.16 
21.865 22.968 667.22 
21.868 23.062 667.3 
21.87 23.156 667.37 
21.872 23.248 667.44 
21.874 23.342 667.5 
21.876 23.435 667.56 
21.879 23.528 667.64 
21.881 23.621 667.72 
21.884 23.715 667.78 
21.887 23.81 667.87 
21.889 23.902 667.96 
21.892 23.997 668.04 
21.894 24.09 668.1 
21.896 24.184 668.18 
21.899 24.279 668.26 
21.902 24.373 668.34 
21.905 24.467 668.43 
21.908 24.56 668.52 
21.91 24.657 668.6 
21.913 24.751 668.69 
21.916 24.844 668.77 
21.919 24.939 668.86 
21.922 25.034 668.95 
21.925 25.13 669.05 
21.928 25.225 669.14 
21.931 25.318 669.22 
21.934 25.413 669.33 
21.938 25.509 669.44 
21.941 25.603 669.52 
21.944 25.698 669.61 
21.947 25.794 669.72 
21.951 25.889 669.83 
21.955 25.985 669.95 
21.958 26.081 670.06 
21.962 26.176 670.17 
21.965 26.272 670.27 
21.969 26.368 670.38 
21.973 26.464 670.51 
21.977 26.56 670.63 
21.981 26.657 670.75 
21.985 26.754 670.87 
21.988 26.849 670.97 
21.992 26.945 671.08 
21.996 27.042 671.21 
22.001 27.139 671.36 
22.005 27.235 671.48 
22.009 27.332 671.62 
22.014 27.429 671.77 
22.019 27.526 671.9 
22.023 27.624 672.04 
22.028 27.723 672.17 
22.032 27.82 672.32 
22.037 27.918 672.47 
22.043 28.017 672.65 
22.049 28.116 672.83 
22.054 28.214 672.99 
22.061 28.312 673.19 
22.067 28.412 673.38 
22.073 28.511 673.56 
22.079 28.611 673.74 
22.086 28.712 673.96 
22.092 28.813 674.14 
22.097 28.912 674.31 
22.105 29.014 674.53 
22.113 29.117 674.79 
22.12 29.218 675.01 
22.128 29.319 675.23 
22.136 29.422 675.5 
22.146 29.527 675.78 
22.153 29.628 675.99 
22.27 -5.9678 676.78 
22.259 -5.8743 676.44 
22.249 -5.7794 676.12 
22.241 -5.6849 675.88 
22.234 -5.5904 675.67 
22.226 -5.4952 675.44 
22.219 -5.4049 675.21 
22.21 -5.3089 674.94 
22.203 -5.2168 674.73 
22.196 -5.1229 674.52 
22.191 -5.0302 674.37 
22.184 -4.9352 674.15 
22.179 -4.8398 673.99 
22.173 -4.7474 673.82 
22.167 -4.6552 673.63 
22.159 -4.5637 673.4 
22.154 -4.4687 673.24 
22.149 -4.3766 673.09 
22.145 -4.2853 672.98 
22.14 -4.1908 672.81 
22.134 -4.0975 672.63 
22.129 -4.0057 672.49 
22.125 -3.9131 672.36 
22.12 -3.8206 672.2 
22.116 -3.7288 672.07 
22.112 -3.6365 671.97 
22.108 -3.545 671.85 
22.103 -3.4513 671.68 
22.098 -3.3579 671.53 
22.094 -3.2669 671.41 
22.089 -3.1744 671.28 
22.085 -3.0829 671.16 
22.082 -2.9902 671.05 
22.078 -2.8984 670.92 
22.073 -2.8075 670.79 
22.069 -2.7166 670.66 
22.066 -2.6236 670.56 
22.062 -2.5318 670.43 
22.059 -2.4397 670.35 
22.055 -2.3468 670.23 
22.052 -2.2547 670.15 
22.049 -2.1633 670.04 
22.045 -2.0714 669.94 
22.042 -1.9806 669.83 
22.039 -1.8883 669.74 
22.036 -1.7967 669.64 
22.032 -1.7053 669.54 
22.028 -1.6145 669.43 
22.026 -1.5231 669.34 
22.023 -1.4309 669.26 
22.019 -1.3402 669.15 
22.016 -1.249 669.05 
22.013 -1.1567 668.94 
22.011 -1.0645 668.88 
22.008 -0.97352 668.8 
22.006 -0.88319 668.74 
22.002 -0.79052 668.64 
22 -0.69928 668.55 
21.997 -0.6086 668.47 
21.994 -0.51724 668.38 
21.991 -0.42619 668.3 
21.989 -0.33444 668.24 
21.986 -0.24254 668.14 
21.984 -0.15205 668.09 
21.982 -0.06119 668.01 
21.98 0.029991 667.94 
21.976 0.12082 667.84 
21.974 0.21158 667.77 
21.971 0.30237 667.68 
21.969 0.39294 667.62 
21.967 0.48385 667.57 
21.965 0.57604 667.51 
21.963 0.6681 667.43 
21.961 0.7593 667.37 
21.958 0.84977 667.29 
21.956 0.94065 667.24 
21.954 1.0316 667.17 
21.951 1.1221 667.09 
21.949 1.2129 667.03 
21.948 1.3041 666.98 
21.947 1.395 666.94 
21.944 1.4859 666.86 
21.942 1.5768 666.81 
21.94 1.6674 666.75 
21.939 1.7578 666.7 
21.936 1.8494 666.62 
21.934 1.9396 666.55 
21.932 2.0297 666.5 
21.931 2.1203 666.45 
21.929 2.2114 666.4 
21.927 2.3023 666.34 
21.925 2.393 666.3 
21.923 2.483 666.22 
21.921 2.5736 666.17 
21.92 2.6649 666.13 
21.918 2.7563 666.07 
21.917 2.8467 666.03 
21.915 2.937 665.97 
21.913 3.026 665.9 
21.911 3.1168 665.85 
21.91 3.2073 665.83 
21.908 3.2986 665.78 
21.907 3.389 665.74 
21.906 3.4802 665.7 
21.905 3.5705 665.67 
21.903 3.6611 665.6 
21.901 3.7517 665.56 
21.9 3.8426 665.51 
21.898 3.9323 665.48 
21.897 4.0239 665.42 
21.895 4.1141 665.37 
21.894 4.2042 665.34 
21.893 4.2953 665.31 
21.891 4.3859 665.26 
21.89 4.4765 665.22 
21.889 4.5666 665.17 
21.888 4.6568 665.14 
21.887 4.7475 665.11 
21.885 4.8383 665.08 
21.884 4.9283 665.04 
21.883 5.0189 665.01 
21.881 5.109 664.96 
21.88 5.1998 664.91 
21.879 5.2905 664.88 
21.878 5.3806 664.85 
21.877 5.4709 664.83 
21.875 5.5612 664.77 
21.874 5.6522 664.74 
21.874 5.7427 664.72 
21.873 5.8326 664.69 
21.871 5.9234 664.63 
21.87 6.0129 664.61 
21.87 6.1039 664.6 
21.869 6.1943 664.58 
21.868 6.285 664.55 
21.868 6.3751 664.54 
21.867 6.4658 664.51 
21.865 6.555 664.46 
21.864 6.646 664.43 
21.863 6.737 664.41 
21.863 6.8278 664.39 
21.861 6.9174 664.35 
21.861 7.0071 664.33 
21.86 7.0984 664.31 
21.859 7.1897 664.28 
21.858 7.2798 664.25 
21.858 7.37 664.24 
21.857 7.4602 664.23 
21.857 7.5503 664.21 
21.856 7.6411 664.18 
21.854 7.7302 664.13 
21.854 7.8211 664.12 
21.854 7.9121 664.13 
21.854 8.0039 664.11 
21.852 8.0928 664.07 
21.852 8.1833 664.05 
21.851 8.2741 664.03 
21.85 8.3632 664.01 
21.85 8.4532 664.01 
21.85 8.5436 664 
21.849 8.6339 663.98 
21.848 8.7257 663.95 
21.848 8.8163 663.94 
21.848 8.9066 663.93 
21.847 8.9972 663.92 
21.847 9.0877 663.91 
21.846 9.1787 663.88 
21.845 9.2683 663.86 
21.845 9.3583 663.84 
21.844 9.4492 663.83 
21.844 9.5403 663.82 
21.844 9.6308 663.81 
21.844 9.7211 663.81 
21.844 9.8111 663.81 
21.843 9.9019 663.79 
21.842 9.994 663.77 
21.842 10.085 663.76 
21.841 10.174 663.72 
21.84 10.263 663.7 
21.841 10.355 663.71 
21.842 10.446 663.76 
21.843 10.536 663.79 
21.844 10.626 663.82 
21.846 10.715 663.86 
21.846 10.805 663.89 
21.844 10.893 663.81 
21.839 10.98 663.67 
21.835 11.062 663.56 
21.834 11.152 663.53 
21.848 12.344 663.93 
21.846 12.436 663.89 
21.845 12.525 663.84 
21.844 12.615 663.81 
21.843 12.705 663.78 
21.841 12.795 663.72 
21.839 12.884 663.66 
21.839 12.975 663.66 
21.84 13.066 663.68 
21.84 13.156 663.7 
21.841 13.246 663.71 
21.841 13.337 663.72 
21.841 13.429 663.73 
21.841 13.52 663.74 
21.842 13.611 663.76 
21.843 13.702 663.77 
21.842 13.792 663.77 
21.843 13.884 663.78 
21.843 13.975 663.8 
21.844 14.066 663.81 
21.844 14.156 663.83 
21.844 14.245 663.83 
21.845 14.337 663.84 
21.844 14.428 663.83 
21.845 14.519 663.84 
21.846 14.61 663.87 
21.847 14.702 663.89 
21.847 14.793 663.91 
21.847 14.883 663.91 
21.848 14.974 663.92 
21.848 15.065 663.93 
21.848 15.155 663.93 
21.849 15.245 663.96 
21.849 15.337 663.98 
21.85 15.428 664 
21.851 15.519 664.02 
21.851 15.61 664.04 
21.852 15.702 664.06 
21.853 15.794 664.08 
21.854 15.885 664.1 
21.854 15.975 664.13 
21.855 16.066 664.14 
21.855 16.157 664.16 
21.856 16.248 664.18 
21.857 16.34 664.2 
21.857 16.431 664.21 
21.858 16.521 664.24 
21.859 16.612 664.26 
21.86 16.702 664.29 
21.861 16.794 664.32 
21.861 16.886 664.34 
21.862 16.978 664.36 
21.863 17.07 664.39 
21.864 17.161 664.41 
21.865 17.251 664.44 
21.865 17.343 664.46 
21.866 17.434 664.49 
21.868 17.525 664.53 
21.868 17.617 664.55 
21.869 17.708 664.59 
21.87 17.8 664.62 
21.871 17.892 664.65 
21.872 17.983 664.66 
21.873 18.074 664.69 
21.874 18.166 664.73 
21.875 18.257 664.77 
21.877 18.349 664.8 
21.878 18.442 664.85 
21.879 18.534 664.87 
21.88 18.626 664.91 
21.882 18.717 664.96 
21.882 18.809 664.96 
21.883 18.901 665 
21.884 18.992 665.02 
21.885 19.083 665.06 
21.886 19.174 665.11 
21.888 19.266 665.16 
21.89 19.359 665.21 
21.891 19.452 665.25 
21.892 19.543 665.28 
21.893 19.634 665.31 
21.895 19.726 665.38 
21.896 19.819 665.41 
21.897 19.911 665.44 
21.898 20.002 665.46 
21.9 20.094 665.51 
21.902 20.186 665.56 
21.903 20.278 665.6 
21.904 20.37 665.65 
21.906 20.461 665.69 
21.908 20.554 665.75 
21.91 20.648 665.81 
21.911 20.739 665.86 
21.913 20.832 665.91 
21.915 20.925 665.96 
21.916 21.017 666 
21.917 21.11 666.04 
21.919 21.203 666.1 
21.921 21.296 666.16 
21.923 21.389 666.21 
21.925 21.48 666.26 
21.926 21.573 666.31 
21.928 21.667 666.38 
21.93 21.759 666.44 
21.932 21.851 666.49 
21.934 21.943 666.56 
21.937 22.036 666.63 
21.938 22.129 666.67 
21.94 22.223 666.74 
21.942 22.316 666.79 
21.944 22.409 666.86 
21.946 22.502 666.92 
21.948 22.594 666.96 
21.95 22.687 667.03 
21.952 22.782 667.1 
21.954 22.875 667.17 
21.957 22.969 667.24 
21.959 23.063 667.32 
21.962 23.156 667.39 
21.964 23.249 667.46 
21.966 23.342 667.53 
21.968 23.436 667.6 
21.971 23.528 667.68 
21.973 23.622 667.73 
21.975 23.716 667.8 
21.978 23.811 667.88 
21.981 23.904 667.97 
21.983 23.998 668.05 
21.986 24.092 668.13 
21.988 24.185 668.2 
21.991 24.28 668.27 
21.993 24.373 668.35 
21.996 24.467 668.44 
22 24.562 668.56 
22.003 24.657 668.64 
22.005 24.751 668.71 
22.007 24.845 668.78 
22.01 24.94 668.87 
22.013 25.035 668.96 
22.017 25.131 669.07 
22.02 25.225 669.15 
22.022 25.318 669.22 
22.025 25.414 669.32 
22.029 25.508 669.44 
22.033 25.603 669.55 
22.036 25.698 669.63 
22.039 25.794 669.74 
22.043 25.889 669.85 
22.046 25.984 669.96 
22.05 26.081 670.08 
22.054 26.177 670.2 
22.057 26.273 670.29 
22.061 26.368 670.4 
22.065 26.465 670.53 
22.069 26.561 670.65 
22.073 26.657 670.77 
22.077 26.753 670.89 
22.081 26.85 671.01 
22.085 26.947 671.13 
22.089 27.044 671.25 
22.094 27.141 671.4 
22.098 27.238 671.53 
22.102 27.334 671.65 
22.106 27.43 671.77 
22.111 27.528 671.92 
22.115 27.625 672.06 
22.12 27.724 672.21 
22.125 27.821 672.36 
22.13 27.918 672.5 
22.136 28.018 672.68 
22.141 28.117 672.85 
22.147 28.215 673.02 
22.153 28.313 673.22 
22.159 28.413 673.4 
22.165 28.513 673.58 
22.171 28.612 673.75 
22.178 28.713 673.96 
22.184 28.813 674.16 
22.191 28.915 674.37 
22.199 29.018 674.59 
22.207 29.12 674.84 
22.213 29.22 675.04 
22.22 29.32 675.25 
22.229 29.423 675.51 
22.238 29.528 675.79 
22.246 29.63 676.03 
22.362 -5.9676 676.77 
22.353 -5.8742 676.49 
22.341 -5.7788 676.13 
22.333 -5.6851 675.88 
22.327 -5.5906 675.69 
22.32 -5.4967 675.49 
22.311 -5.4043 675.22 
22.304 -5.3109 675 
22.296 -5.2165 674.77 
22.29 -5.124 674.57 
22.284 -5.0299 674.41 
22.278 -4.9351 674.21 
22.271 -4.8414 674.01 
22.265 -4.7475 673.81 
22.259 -4.6551 673.64 
22.252 -4.5635 673.44 
22.246 -4.4705 673.24 
22.242 -4.3768 673.12 
22.237 -4.2845 672.99 
22.232 -4.1921 672.83 
22.227 -4.0988 672.69 
22.222 -4.0054 672.53 
22.217 -3.914 672.37 
22.212 -3.8213 672.22 
22.208 -3.7291 672.1 
22.205 -3.6363 672 
22.201 -3.5452 671.88 
22.195 -3.451 671.71 
22.19 -3.3579 671.54 
22.185 -3.2668 671.4 
22.181 -3.1744 671.29 
22.177 -3.0827 671.16 
22.174 -2.9906 671.07 
22.17 -2.8985 670.95 
22.166 -2.8059 670.82 
22.161 -2.7147 670.69 
22.158 -2.6246 670.59 
22.154 -2.5319 670.46 
22.151 -2.4392 670.37 
22.147 -2.3469 670.26 
22.144 -2.2553 670.15 
