ply
format ascii 1.0
comment Author: CloudCompare (TELECOM PARISTECH/EDF R&D)
obj_info Generated by CloudCompare!
element vertex 2188
property float x
property float y
property float z
end_header
6.3045 21.698 667.45 
6.3052 21.792 667.53 
6.3064 21.888 667.64 
6.307 21.982 667.71 
6.3076 22.075 667.78 
6.3085 22.17 667.87 
6.3096 22.265 667.98 
6.3105 22.359 668.08 
6.3115 22.453 668.19 
6.3124 22.546 668.29 
6.3132 22.641 668.37 
6.3141 22.736 668.46 
6.3151 22.83 668.57 
6.316 22.925 668.66 
6.317 23.02 668.77 
6.318 23.114 668.87 
6.3191 23.21 668.99 
6.3204 23.306 669.13 
6.3214 23.4 669.24 
6.3226 23.495 669.36 
6.3237 23.59 669.48 
6.3245 23.686 669.56 
6.3256 23.781 669.68 
6.3269 23.877 669.82 
6.3282 23.974 669.96 
6.3291 24.068 670.05 
6.3307 24.167 670.22 
6.332 24.264 670.36 
6.3335 24.361 670.52 
6.3348 24.455 670.66 
6.3361 24.552 670.79 
6.3378 24.65 670.97 
6.3394 24.749 671.13 
6.341 24.847 671.31 
6.3426 24.945 671.48 
6.3442 25.043 671.64 
6.3459 25.142 671.83 
6.3478 25.24 672.02 
6.3497 25.339 672.23 
6.3522 25.441 672.49 
6.3542 25.539 672.7 
6.3563 25.64 672.93 
6.3581 25.739 673.12 
6.3604 25.84 673.36 
6.3632 25.943 673.67 
6.3658 26.044 673.94 
6.3686 26.147 674.23 
6.3718 26.253 674.58 
6.3753 26.359 674.94 
6.4735 -2.92 675.61 
6.4698 -2.8243 675.23 
6.466 -2.7323 674.83 
6.4637 -2.634 674.59 
6.461 -2.5424 674.31 
6.4586 -2.4495 674.06 
6.4557 -2.3563 673.75 
6.4534 -2.265 673.52 
6.4512 -2.1714 673.29 
6.4491 -2.0789 673.06 
6.4467 -1.9874 672.82 
6.4451 -1.8958 672.65 
6.4431 -1.8036 672.44 
6.4414 -1.7127 672.26 
6.4396 -1.6179 672.07 
6.4381 -1.5274 671.92 
6.4364 -1.4372 671.74 
6.4346 -1.3452 671.56 
6.433 -1.2527 671.38 
6.4314 -1.1594 671.22 
6.4298 -1.0683 671.06 
6.4284 -0.97719 670.91 
6.4271 -0.88439 670.77 
6.4259 -0.79252 670.64 
6.4243 -0.70183 670.48 
6.4232 -0.60961 670.36 
6.4219 -0.51812 670.23 
6.4209 -0.42703 670.12 
6.4193 -0.3359 669.96 
6.4183 -0.24468 669.85 
6.4172 -0.15233 669.73 
6.4162 -0.061706 669.63 
6.4149 0.030595 669.5 
6.4136 0.12095 669.36 
6.4123 0.21236 669.22 
6.4116 0.30328 669.15 
6.4105 0.39581 669.03 
6.4094 0.48719 668.92 
6.4084 0.57629 668.82 
6.4074 0.66782 668.71 
6.4064 0.75794 668.61 
6.4057 0.84967 668.53 
6.405 0.94255 668.46 
6.4037 1.0341 668.33 
6.4031 1.1255 668.26 
6.4021 1.2154 668.16 
6.4013 1.3052 668.07 
6.4003 1.396 667.97 
6.3994 1.4869 667.88 
6.3987 1.579 667.8 
6.398 1.6703 667.73 
6.3975 1.7609 667.67 
6.3965 1.8521 667.57 
6.3958 1.9442 667.5 
6.3951 2.0342 667.42 
6.3941 2.124 667.33 
6.3934 2.2147 667.25 
6.3928 2.3054 667.19 
6.3923 2.3962 667.14 
6.3915 2.4874 667.05 
6.3906 2.5775 666.95 
6.3898 2.6682 666.87 
6.3892 2.7591 666.81 
6.3888 2.8508 666.76 
6.388 2.9406 666.69 
6.3874 3.031 666.62 
6.3869 3.1207 666.57 
6.3862 3.2115 666.49 
6.3856 3.3022 666.43 
6.3849 3.394 666.36 
6.3843 3.485 666.3 
6.3838 3.5752 666.25 
6.383 3.6644 666.16 
6.3825 3.7557 666.11 
6.3821 3.8471 666.07 
6.3818 3.9376 666.03 
6.3813 4.0275 665.98 
6.3808 4.1172 665.93 
6.3803 4.2077 665.88 
6.3797 4.2983 665.81 
6.3791 4.3884 665.76 
6.3786 4.4793 665.7 
6.3782 4.5708 665.66 
6.3779 4.6612 665.63 
6.3774 4.7511 665.58 
6.3768 4.8411 665.51 
6.3765 4.9319 665.48 
6.3758 5.0213 665.41 
6.3755 5.112 665.38 
6.3751 5.2025 665.33 
6.3746 5.2936 665.29 
6.3743 5.3844 665.25 
6.3737 5.4739 665.19 
6.3735 5.5648 665.16 
6.3731 5.6552 665.12 
6.3727 5.7464 665.08 
6.3722 5.8359 665.03 
6.3719 5.9267 665 
6.3715 6.0161 664.96 
6.3714 6.1068 664.95 
6.3709 6.1974 664.9 
6.3705 6.2885 664.86 
6.3699 6.3777 664.79 
6.3698 6.4686 664.78 
6.3696 6.5596 664.76 
6.3691 6.6495 664.71 
6.3688 6.7406 664.68 
6.3684 6.8312 664.64 
6.3683 6.9198 664.62 
6.368 7.0097 664.59 
6.3677 7.101 664.57 
6.3674 7.1921 664.53 
6.367 7.2819 664.48 
6.3669 7.3718 664.47 
6.3666 7.4622 664.45 
6.3663 7.5521 664.42 
6.3662 7.6426 664.4 
6.3659 7.7328 664.38 
6.3655 7.8231 664.33 
6.3652 7.9144 664.3 
6.3652 8.0043 664.3 
6.365 8.0949 664.28 
6.3648 8.1854 664.26 
6.3645 8.2756 664.22 
6.3645 8.3672 664.23 
6.3642 8.4573 664.2 
6.3639 8.5468 664.16 
6.3637 8.6378 664.14 
6.3636 8.7282 664.13 
6.3633 8.8184 664.1 
6.3632 8.9076 664.08 
6.3631 8.9983 664.07 
6.363 9.089 664.07 
6.3627 9.1787 664.04 
6.3627 9.2693 664.04 
6.3623 9.3601 663.99 
6.3621 9.4498 663.98 
6.3621 9.5408 663.98 
6.362 9.6309 663.96 
6.3619 9.7203 663.95 
6.3618 9.8115 663.94 
6.3618 9.9013 663.94 
6.3616 9.9923 663.93 
6.3615 10.083 663.91 
6.3615 10.174 663.91 
6.3612 10.263 663.88 
6.3611 10.354 663.87 
6.361 10.443 663.86 
6.3612 10.534 663.87 
6.3612 10.625 663.88 
6.3611 10.716 663.87 
6.3609 10.806 663.84 
6.3609 10.896 663.85 
6.3608 10.987 663.84 
6.3607 11.078 663.83 
6.3606 11.167 663.82 
6.3605 11.258 663.8 
6.3605 11.35 663.8 
6.3606 11.44 663.82 
6.3605 11.53 663.81 
6.3605 11.62 663.8 
6.3606 11.712 663.81 
6.3605 11.802 663.8 
6.3607 11.893 663.83 
6.3608 11.984 663.83 
6.3608 12.075 663.83 
6.3607 12.165 663.82 
6.3605 12.254 663.81 
6.3605 12.345 663.8 
6.3607 12.437 663.82 
6.3607 12.526 663.82 
6.3609 12.618 663.84 
6.361 12.708 663.85 
6.3611 12.8 663.86 
6.3609 12.89 663.84 
6.361 12.98 663.85 
6.3611 13.071 663.86 
6.3613 13.161 663.88 
6.3613 13.252 663.88 
6.3612 13.342 663.87 
6.3613 13.432 663.88 
6.3615 13.524 663.9 
6.3616 13.617 663.92 
6.3618 13.708 663.93 
6.3618 13.798 663.94 
6.362 13.888 663.95 
6.3621 13.979 663.97 
6.3622 14.069 663.97 
6.3623 14.161 663.99 
6.3626 14.252 664.02 
6.3627 14.342 664.03 
6.3629 14.434 664.04 
6.363 14.525 664.06 
6.3632 14.615 664.08 
6.3634 14.707 664.1 
6.3636 14.798 664.12 
6.3636 14.888 664.13 
6.3639 14.979 664.15 
6.3644 15.071 664.2 
6.3645 15.163 664.22 
6.3646 15.253 664.23 
6.3647 15.343 664.24 
6.365 15.434 664.27 
6.3652 15.527 664.29 
6.3655 15.617 664.31 
6.3658 15.708 664.35 
6.366 15.799 664.38 
6.3662 15.89 664.39 
6.3664 15.983 664.42 
6.3667 16.074 664.44 
6.367 16.165 664.48 
6.3671 16.256 664.49 
6.3674 16.348 664.51 
6.3675 16.438 664.53 
6.3678 16.53 664.55 
6.3681 16.621 664.59 
6.3684 16.711 664.62 
6.3688 16.802 664.67 
6.3693 16.895 664.71 
6.3697 16.987 664.75 
6.37 17.079 664.78 
6.3703 17.17 664.82 
6.3706 17.262 664.85 
6.3711 17.355 664.91 
6.3713 17.447 664.92 
6.3716 17.537 664.96 
6.372 17.627 664.99 
6.3724 17.72 665.04 
6.3728 17.812 665.07 
6.3732 17.905 665.12 
6.3736 17.997 665.16 
6.3741 18.088 665.22 
6.3745 18.179 665.26 
6.3749 18.272 665.3 
6.3752 18.363 665.33 
6.3758 18.456 665.39 
6.3763 18.549 665.44 
6.3766 18.64 665.48 
6.3772 18.733 665.53 
6.3775 18.825 665.57 
6.3781 18.916 665.63 
6.3786 19.008 665.68 
6.3787 19.099 665.7 
6.3792 19.191 665.74 
6.3796 19.284 665.79 
6.3803 19.378 665.85 
6.3808 19.469 665.91 
6.3814 19.563 665.97 
6.3819 19.655 666.03 
6.3825 19.748 666.09 
6.383 19.839 666.14 
6.3836 19.932 666.21 
6.3844 20.026 666.28 
6.3848 20.117 666.32 
6.3853 20.21 666.38 
6.386 20.303 666.45 
6.3866 20.396 666.52 
6.3873 20.491 666.59 
6.3879 20.583 666.65 
6.3885 20.675 666.71 
6.3891 20.767 666.78 
6.3899 20.861 666.87 
6.3905 20.954 666.93 
6.3915 21.049 667.02 
6.3923 21.143 667.1 
6.3928 21.235 667.16 
6.3934 21.328 667.22 
6.3942 21.422 667.31 
6.3948 21.515 667.37 
6.3956 21.608 667.45 
6.3961 21.7 667.51 
6.3971 21.795 667.61 
6.3981 21.89 667.71 
6.399 21.985 667.81 
6.3997 22.08 667.88 
6.4006 22.174 667.97 
6.4017 22.269 668.09 
6.4026 22.363 668.18 
6.4034 22.456 668.27 
6.4044 22.55 668.37 
6.4052 22.644 668.46 
6.4061 22.739 668.55 
6.4071 22.833 668.66 
6.4083 22.928 668.78 
6.4093 23.023 668.89 
6.4104 23.118 669 
6.4115 23.214 669.11 
6.4125 23.309 669.22 
6.4139 23.405 669.36 
6.4153 23.5 669.51 
6.416 23.596 669.58 
6.417 23.691 669.68 
6.4183 23.786 669.82 
6.4194 23.882 669.94 
6.4207 23.977 670.07 
6.422 24.074 670.2 
6.4234 24.172 670.35 
6.4248 24.268 670.5 
6.4261 24.364 670.63 
6.4273 24.458 670.77 
6.429 24.556 670.94 
6.4307 24.656 671.11 
6.4327 24.755 671.32 
6.434 24.852 671.46 
6.4357 24.95 671.64 
6.4376 25.05 671.83 
6.4392 25.149 672 
6.4411 25.246 672.19 
6.4432 25.345 672.42 
6.4452 25.445 672.63 
6.4476 25.547 672.88 
6.4498 25.646 673.11 
6.452 25.747 673.34 
6.4546 25.85 673.61 
6.4574 25.952 673.9 
6.4602 26.053 674.2 
6.4634 26.158 674.53 
6.4669 26.266 674.89 
6.5647 -2.8271 675.52 
6.561 -2.7323 675.13 
6.5582 -2.6354 674.85 
6.5553 -2.5435 674.55 
6.5526 -2.4501 674.27 
6.5497 -2.3569 673.97 
6.5476 -2.2658 673.75 
6.5449 -2.172 673.47 
6.5428 -2.0818 673.26 
6.5406 -1.9881 673.04 
6.5382 -1.8963 672.79 
6.5362 -1.8028 672.58 
6.5344 -1.7118 672.39 
6.5329 -1.6189 672.24 
6.5311 -1.5271 672.06 
6.5293 -1.4368 671.87 
6.5275 -1.3448 671.69 
6.526 -1.253 671.54 
6.5243 -1.1606 671.36 
6.5227 -1.0697 671.2 
6.5214 -0.97677 671.06 
6.5199 -0.88405 670.9 
6.5182 -0.79202 670.73 
6.5169 -0.70166 670.6 
6.5157 -0.60976 670.47 
6.5145 -0.51875 670.35 
6.5133 -0.42714 670.23 
6.512 -0.33682 670.09 
6.5107 -0.24443 669.96 
6.5094 -0.15222 669.83 
6.5087 -0.060296 669.75 
6.5072 0.030622 669.59 
6.5059 0.12173 669.47 
6.5049 0.21167 669.36 
6.5037 0.30332 669.24 
6.5029 0.39551 669.15 
6.5017 0.48576 669.03 
6.5007 0.57546 668.93 
6.4994 0.66816 668.8 
6.4987 0.75828 668.72 
6.4978 0.85094 668.63 
6.4969 0.94262 668.54 
6.4959 1.0337 668.43 
6.495 1.1258 668.34 
6.4942 1.2159 668.26 
6.4934 1.3067 668.17 
6.4924 1.3959 668.08 
6.4916 1.4873 667.99 
6.4906 1.5787 667.89 
6.4899 1.6703 667.81 
6.4894 1.7615 667.77 
6.4885 1.8523 667.67 
6.4876 1.943 667.58 
6.4871 2.0337 667.52 
6.4861 2.124 667.43 
6.4855 2.2138 667.36 
6.4848 2.3045 667.29 
6.4841 2.3957 667.22 
6.4834 2.4865 667.14 
6.4825 2.5767 667.05 
6.4817 2.6682 666.97 
6.481 2.7602 666.9 
6.4805 2.8503 666.84 
6.4798 2.9406 666.77 
6.4792 3.0319 666.71 
6.4786 3.1217 666.65 
6.4779 3.2126 666.58 
6.4772 3.3025 666.5 
6.4766 3.3941 666.44 
6.4763 3.4862 666.41 
6.4757 3.5757 666.35 
6.475 3.665 666.28 
6.4744 3.7554 666.22 
6.4738 3.8464 666.16 
6.4733 3.9376 666.1 
6.4727 4.0278 666.04 
6.4723 4.1174 666.01 
6.4718 4.2085 665.95 
6.4714 4.2993 665.91 
6.4707 4.3897 665.84 
6.4702 4.4797 665.78 
6.4696 4.5705 665.73 
6.4693 4.6615 665.69 
6.469 4.7519 665.66 
6.4684 4.8422 665.6 
6.4678 4.9323 665.54 
6.4675 5.0222 665.5 
6.4669 5.1131 665.44 
6.4665 5.2036 665.4 
6.4661 5.2944 665.36 
6.4657 5.3851 665.32 
6.4653 5.4748 665.27 
6.4648 5.5654 665.23 
6.4645 5.6565 665.2 
6.4642 5.7475 665.16 
6.4638 5.8362 665.13 
6.4633 5.9265 665.07 
6.4631 6.0173 665.05 
6.4628 6.1074 665.02 
6.4624 6.1983 664.98 
6.4618 6.2888 664.92 
6.4615 6.3779 664.88 
6.4613 6.4687 664.86 
6.461 6.5604 664.84 
6.4606 6.6504 664.79 
6.4601 6.7412 664.74 
6.4597 6.8316 664.7 
6.4595 6.9206 664.68 
6.4593 7.0109 664.66 
6.4592 7.1023 664.64 
6.4589 7.1926 664.62 
6.4585 7.2824 664.58 
6.4582 7.3728 664.55 
6.4578 7.4632 664.51 
6.4577 7.5531 664.49 
6.4575 7.6436 664.47 
6.4572 7.7339 664.45 
6.4569 7.824 664.41 
6.4566 7.9144 664.38 
6.4564 8.0049 664.36 
6.4564 8.0962 664.36 
6.456 8.1863 664.32 
6.4559 8.2768 664.3 
6.4559 8.3676 664.31 
6.4556 8.4582 664.28 
6.4554 8.5482 664.25 
6.455 8.638 664.21 
6.4548 8.7287 664.19 
6.4546 8.819 664.17 
6.4545 8.9085 664.16 
6.4543 8.9997 664.14 
6.4541 9.0892 664.12 
6.454 9.1798 664.11 
6.454 9.27 664.11 
6.4537 9.3609 664.08 
6.4536 9.4517 664.07 
6.4532 9.5413 664.03 
6.4532 9.6316 664.03 
6.453 9.7219 664.01 
6.4531 9.8125 664.01 
6.4532 9.9026 664.02 
6.4529 9.9926 663.99 
6.4526 10.084 663.96 
6.4526 10.176 663.96 
6.4524 10.264 663.95 
6.4523 10.354 663.94 
6.4523 10.445 663.94 
6.4524 10.536 663.95 
6.4523 10.626 663.94 
6.4522 10.716 663.93 
6.4519 10.807 663.89 
6.4519 10.898 663.89 
6.4521 10.989 663.92 
6.452 11.079 663.9 
6.4518 11.168 663.88 
6.4518 11.26 663.88 
6.4519 11.35 663.89 
6.452 11.441 663.9 
6.4518 11.53 663.88 
6.4516 11.622 663.86 
6.4516 11.712 663.86 
6.4518 11.803 663.88 
6.4519 11.894 663.89 
6.452 11.986 663.89 
6.4521 12.077 663.91 
6.4518 12.165 663.89 
6.4519 12.256 663.89 
6.4518 12.347 663.88 
6.4518 12.437 663.88 
6.4518 12.527 663.88 
6.452 12.619 663.9 
6.4521 12.71 663.91 
6.4522 12.801 663.92 
6.4522 12.89 663.92 
6.4522 12.981 663.92 
6.4524 13.072 663.94 
6.4527 13.164 663.97 
6.4527 13.255 663.97 
6.4526 13.344 663.96 
6.4525 13.434 663.95 
6.4528 13.526 663.98 
6.4531 13.617 664.01 
6.4531 13.709 664.01 
6.453 13.8 664 
6.4533 13.89 664.03 
6.4535 13.98 664.05 
6.4536 14.071 664.06 
6.4537 14.162 664.07 
6.454 14.254 664.1 
6.4541 14.345 664.11 
6.4544 14.435 664.14 
6.4544 14.527 664.14 
6.4545 14.617 664.15 
6.4546 14.708 664.16 
6.4548 14.799 664.18 
6.4549 14.89 664.2 
6.4551 14.981 664.22 
6.4555 15.072 664.26 
6.4557 15.164 664.28 
6.4559 15.255 664.3 
6.4561 15.346 664.32 
6.4563 15.438 664.34 
6.4566 15.529 664.36 
6.4569 15.62 664.4 
6.4572 15.71 664.43 
6.4573 15.801 664.45 
6.4576 15.892 664.47 
6.4578 15.984 664.5 
6.4581 16.075 664.52 
6.4584 16.166 664.55 
6.4586 16.257 664.57 
6.4588 16.349 664.6 
6.4588 16.44 664.6 
6.4593 16.532 664.64 
6.4596 16.624 664.68 
6.46 16.716 664.71 
6.4602 16.806 664.74 
6.4607 16.898 664.79 
6.4611 16.989 664.83 
6.4612 17.08 664.84 
6.4617 17.172 664.89 
6.462 17.264 664.92 
6.4623 17.356 664.96 
6.4626 17.448 664.98 
6.4629 17.539 665.01 
6.4632 17.63 665.04 
6.4638 17.722 665.11 
6.4642 17.813 665.15 
6.4646 17.906 665.19 
6.465 17.998 665.23 
6.4655 18.09 665.28 
6.466 18.181 665.33 
6.4663 18.273 665.36 
6.4665 18.365 665.39 
6.467 18.458 665.44 
6.4677 18.55 665.51 
6.4682 18.642 665.56 
6.4687 18.734 665.61 
6.4691 18.826 665.65 
6.4696 18.918 665.71 
6.4701 19.011 665.76 
6.4705 19.102 665.79 
6.471 19.195 665.85 
6.4716 19.288 665.91 
6.4721 19.38 665.96 
6.4726 19.472 666.02 
6.473 19.565 666.05 
6.4736 19.658 666.11 
6.4742 19.75 666.17 
6.4747 19.842 666.22 
6.4754 19.934 666.3 
6.4761 20.028 666.37 
6.4765 20.121 666.41 
6.4771 20.214 666.48 
6.4777 20.305 666.54 
6.4782 20.398 666.59 
6.4791 20.492 666.67 
6.4796 20.585 666.73 
6.4805 20.679 666.82 
6.4811 20.771 666.89 
6.4818 20.864 666.95 
6.4825 20.958 667.02 
6.4832 21.051 667.1 
6.484 21.145 667.18 
6.4848 21.238 667.26 
6.4854 21.331 667.33 
6.4862 21.425 667.41 
6.4869 21.518 667.48 
6.4877 21.611 667.56 
6.4883 21.705 667.62 
6.4891 21.799 667.71 
6.4899 21.893 667.79 
6.4911 21.988 667.91 
6.492 22.084 668.01 
6.4928 22.177 668.08 
6.4937 22.271 668.18 
6.4947 22.365 668.29 
6.4956 22.46 668.37 
6.4967 22.555 668.48 
6.4977 22.649 668.59 
6.4985 22.743 668.68 
6.4994 22.837 668.77 
6.5007 22.934 668.9 
6.5016 23.028 668.99 
6.5028 23.123 669.11 
6.5038 23.217 669.22 
6.5049 23.313 669.33 
6.5062 23.41 669.46 
6.5075 23.505 669.59 
6.5084 23.6 669.69 
6.5093 23.694 669.79 
6.5108 23.79 669.94 
6.5121 23.886 670.07 
6.5132 23.982 670.19 
6.5145 24.078 670.32 
6.5161 24.176 670.48 
6.5177 24.274 670.64 
6.519 24.37 670.78 
6.5204 24.465 670.93 
6.5222 24.564 671.11 
6.5242 24.663 671.31 
6.5257 24.761 671.47 
6.5274 24.858 671.65 
6.5294 24.957 671.86 
6.5312 25.057 672.03 
6.5326 25.154 672.18 
6.5343 25.251 672.36 
6.5367 25.352 672.61 
6.5391 25.455 672.85 
6.5418 25.557 673.12 
6.5436 25.655 673.31 
6.5463 25.757 673.59 
6.5489 25.86 673.85 
6.552 25.963 674.17 
6.5551 26.064 674.5 
6.5585 26.17 674.85 
6.5634 26.283 675.36 
6.6601 -2.8307 675.85 
6.6564 -2.7321 675.47 
6.653 -2.6378 675.12 
6.6496 -2.5475 674.78 
6.6464 -2.4538 674.46 
6.6436 -2.3586 674.17 
6.6414 -2.2656 673.95 
6.639 -2.1742 673.7 
6.6369 -2.0812 673.5 
6.6342 -1.9899 673.22 
6.632 -1.8955 672.99 
6.6297 -1.804 672.77 
6.6281 -1.7107 672.6 
6.6262 -1.6188 672.4 
6.6242 -1.5273 672.2 
6.6223 -1.4361 672.01 
6.6207 -1.3446 671.85 
6.6191 -1.2517 671.68 
6.6174 -1.1609 671.52 
6.6158 -1.0686 671.35 
6.6142 -0.97692 671.18 
6.6128 -0.88387 671.05 
6.6113 -0.79112 670.89 
6.6096 -0.70037 670.72 
6.6082 -0.60884 670.58 
6.6072 -0.5172 670.48 
6.606 -0.42667 670.35 
6.6044 -0.33561 670.19 
6.6031 -0.24451 670.06 
6.6021 -0.15249 669.96 
6.601 -0.059398 669.85 
6.5997 0.032147 669.72 
6.5985 0.12313 669.59 
6.5975 0.21329 669.49 
6.5965 0.30276 669.39 
6.5952 0.39505 669.26 
6.594 0.48633 669.13 
6.5931 0.57659 669.05 
6.5919 0.66816 668.92 
6.5912 0.7598 668.85 
6.5902 0.85176 668.75 
6.5892 0.94208 668.64 
6.5881 1.0327 668.54 
6.5873 1.1255 668.45 
6.5864 1.2159 668.36 
6.5855 1.3069 668.27 
6.5846 1.3963 668.18 
6.5834 1.4871 668.06 
6.5826 1.5788 667.98 
6.582 1.6707 667.92 
6.5813 1.7616 667.85 
6.5806 1.8525 667.77 
6.5795 1.943 667.67 
6.5788 2.0334 667.59 
6.5782 2.1246 667.53 
6.5774 2.2133 667.45 
6.5765 2.3039 667.36 
6.576 2.3953 667.31 
6.5752 2.4867 667.22 
6.5743 2.5777 667.13 
6.5735 2.669 667.05 
6.5728 2.7602 666.98 
6.5723 2.851 666.93 
6.5718 2.941 666.88 
6.5711 3.0322 666.81 
6.5703 3.1224 666.73 
6.5698 3.214 666.68 
6.569 3.3029 666.6 
6.5684 3.3945 666.53 
6.568 3.4861 666.5 
6.5676 3.5755 666.45 
6.5667 3.6661 666.36 
6.566 3.7561 666.29 
6.5654 3.8472 666.23 
6.5652 3.9384 666.2 
6.5645 4.0283 666.13 
6.5639 4.1178 666.08 
6.5632 4.2082 666.01 
6.5631 4.2995 665.99 
6.5624 4.3906 665.92 
6.5618 4.4809 665.86 
6.5612 4.5717 665.81 
6.5609 4.662 665.77 
6.5606 4.7531 665.74 
6.56 4.8427 665.68 
6.5593 4.9334 665.61 
6.559 5.0233 665.58 
6.5585 5.1144 665.52 
6.5581 5.2048 665.48 
6.5577 5.295 665.45 
6.5573 5.3845 665.41 
6.5567 5.4758 665.35 
6.5564 5.5658 665.31 
6.5561 5.6565 665.28 
6.5555 5.747 665.22 
6.5552 5.8367 665.19 
6.555 5.927 665.17 
6.5546 6.0178 665.13 
6.5543 6.1082 665.1 
6.5537 6.1981 665.04 
6.5534 6.2895 665.01 
6.5532 6.3793 664.98 
6.5529 6.4699 664.95 
6.5526 6.5607 664.93 
6.5521 6.6516 664.88 
6.5516 6.7415 664.83 
6.5511 6.8313 664.77 
6.5509 6.9209 664.75 
6.5506 7.0119 664.72 
6.5503 7.1026 664.7 
6.5502 7.1941 664.68 
6.55 7.2834 664.66 
6.5496 7.3735 664.62 
6.5492 7.4637 664.58 
6.5489 7.5542 664.55 
6.5488 7.6436 664.54 
6.5486 7.7352 664.52 
6.5483 7.8253 664.49 
6.5481 7.9164 664.47 
6.5478 8.0053 664.44 
6.5476 8.097 664.41 
6.5473 8.1874 664.39 
6.5472 8.2775 664.37 
6.5472 8.3686 664.38 
6.5471 8.4592 664.36 
6.5467 8.5499 664.32 
6.5463 8.6389 664.29 
6.5462 8.7293 664.27 
6.5462 8.8198 664.27 
6.5457 8.9093 664.23 
6.5457 9.0002 664.23 
6.5455 9.0896 664.21 
6.5454 9.1812 664.19 
6.5451 9.2715 664.16 
6.545 9.3617 664.15 
6.5448 9.4523 664.13 
6.5446 9.5422 664.12 
6.5445 9.6324 664.11 
6.5443 9.7234 664.08 
6.5443 9.8134 664.08 
6.5443 9.904 664.08 
6.5442 9.9948 664.07 
6.544 10.085 664.05 
6.544 10.176 664.04 
6.5438 10.266 664.03 
6.5437 10.355 664.02 
6.5437 10.446 664.02 
6.5437 10.538 664.02 
6.5436 10.628 664 
6.5434 10.719 663.99 
6.5432 10.809 663.97 
6.5432 10.899 663.97 
6.5433 10.991 663.98 
6.5432 11.08 663.97 
6.543 11.17 663.94 
6.5429 11.261 663.93 
6.5431 11.351 663.95 
6.5431 11.442 663.96 
6.5429 11.532 663.94 
6.543 11.623 663.95 
6.5429 11.715 663.94 
6.5429 11.805 663.94 
6.543 11.896 663.95 
6.543 11.987 663.95 
6.5432 12.078 663.97 
6.5432 12.167 663.97 
6.5431 12.257 663.96 
6.543 12.348 663.95 
6.543 12.439 663.95 
6.543 12.529 663.95 
6.5432 12.62 663.96 
6.5433 12.711 663.98 
6.5434 12.801 663.99 
6.5434 12.892 663.99 
6.5434 12.982 663.98 
6.5435 13.074 664 
6.5438 13.165 664.03 
6.5439 13.256 664.04 
6.544 13.347 664.05 
6.5439 13.436 664.04 
6.5441 13.528 664.06 
6.5444 13.619 664.09 
6.5445 13.71 664.09 
6.5445 13.801 664.1 
6.5446 13.892 664.1 
6.5446 13.981 664.11 
6.545 14.073 664.14 
6.5451 14.164 664.16 
6.5453 14.256 664.18 
6.5454 14.346 664.19 
6.5457 14.438 664.22 
6.5457 14.528 664.22 
6.5458 14.619 664.22 
6.5459 14.71 664.24 
6.5461 14.801 664.25 
6.5461 14.891 664.26 
6.5464 14.982 664.29 
6.5468 15.074 664.32 
6.547 15.165 664.35 
6.5473 15.257 664.38 
6.5473 15.348 664.38 
6.5475 15.438 664.4 
6.548 15.53 664.45 
6.5483 15.622 664.48 
6.5485 15.712 664.49 
6.5486 15.804 664.51 
6.549 15.894 664.55 
6.5492 15.986 664.57 
6.5495 16.076 664.6 
6.5499 16.168 664.64 
6.5502 16.26 664.67 
6.5504 16.351 664.69 
6.5504 16.442 664.69 
6.5508 16.534 664.73 
6.5511 16.626 664.76 
6.5515 16.717 664.8 
6.5517 16.809 664.82 
6.5522 16.9 664.87 
6.5526 16.991 664.91 
6.5529 17.083 664.94 
6.5531 17.174 664.97 
6.5533 17.265 664.99 
6.5538 17.357 665.04 
6.5543 17.45 665.08 
6.5544 17.541 665.1 
6.5548 17.633 665.14 
6.5553 17.725 665.18 
6.5558 17.816 665.23 
6.5561 17.908 665.26 
6.5563 18 665.29 
6.557 18.092 665.36 
6.5577 18.185 665.43 
6.5581 18.278 665.46 
6.5583 18.369 665.49 
6.5587 18.46 665.53 
6.5592 18.552 665.58 
6.5598 18.646 665.64 
6.5603 18.737 665.69 
6.5607 18.829 665.74 
6.5611 18.921 665.78 
6.5616 19.013 665.82 
6.5622 19.105 665.88 
6.5629 19.198 665.95 
6.5635 19.29 666.01 
6.5639 19.383 666.05 
6.5641 19.473 666.08 
6.5647 19.567 666.14 
6.5653 19.66 666.2 
6.566 19.752 666.27 
6.5667 19.846 666.34 
6.5672 19.938 666.4 
6.5677 20.03 666.44 
6.5682 20.124 666.5 
6.569 20.218 666.57 
6.5697 20.31 666.65 
6.5703 20.402 666.7 
6.5708 20.495 666.76 
6.5716 20.588 666.84 
6.5724 20.682 666.91 
6.573 20.775 666.98 
6.5737 20.868 667.05 
6.5743 20.961 667.11 
6.575 21.054 667.18 
6.5759 21.148 667.28 
6.5769 21.242 667.37 
6.5775 21.335 667.43 
6.578 21.427 667.49 
6.579 21.521 667.59 
6.5799 21.615 667.68 
6.5804 21.709 667.73 
6.5813 21.803 667.82 
6.5821 21.896 667.9 
6.5832 21.991 668.01 
6.584 22.086 668.1 
6.5848 22.18 668.17 
6.5859 22.275 668.28 
6.587 22.37 668.39 
6.5879 22.464 668.49 
6.5887 22.559 668.57 
6.5898 22.653 668.68 
6.591 22.747 668.8 
6.5919 22.84 668.9 
6.593 22.937 669 
6.5939 23.031 669.1 
6.5951 23.125 669.22 
6.5961 23.22 669.32 
6.5974 23.317 669.45 
6.5988 23.414 669.59 
6.6 23.509 669.71 
6.6009 23.604 669.81 
6.602 23.698 669.92 
6.6036 23.795 670.09 
6.6051 23.892 670.24 
6.6063 23.988 670.35 
6.6074 24.084 670.47 
6.6092 24.182 670.64 
6.6107 24.279 670.8 
6.6119 24.375 670.92 
6.6135 24.471 671.09 
6.6152 24.569 671.26 
6.6172 24.668 671.46 
6.6188 24.764 671.63 
6.6207 24.863 671.81 
6.6224 24.963 671.99 
6.6244 25.063 672.19 
6.6263 25.161 672.39 
6.6282 25.259 672.58 
6.6304 25.36 672.8 
6.6326 25.461 673.02 
6.6348 25.56 673.25 
6.6371 25.662 673.48 
6.6397 25.763 673.75 
6.643 25.866 674.08 
6.6464 25.97 674.43 
6.6502 26.078 674.81 
6.6544 26.189 675.23 
6.7535 -2.7379 675.97 
6.7489 -2.6399 675.51 
6.7443 -2.5467 675.04 
6.7406 -2.4525 674.68 
6.7378 -2.3602 674.4 
6.7354 -2.2689 674.16 
6.733 -2.1759 673.92 
6.7305 -2.0824 673.67 
6.728 -1.9885 673.42 
6.7257 -1.8954 673.18 
6.7233 -1.8048 672.95 
6.7213 -1.7123 672.75 
6.7192 -1.6209 672.54 
6.7176 -1.5289 672.38 
6.7155 -1.436 672.17 
6.7136 -1.3441 671.97 
6.7122 -1.2518 671.83 
6.7107 -1.1623 671.69 
6.7088 -1.0698 671.49 
6.7072 -0.97716 671.34 
6.7058 -0.88591 671.2 
6.7043 -0.79299 671.04 
6.7028 -0.70094 670.89 
6.7013 -0.60966 670.75 
6.6999 -0.51817 670.6 
6.6988 -0.42579 670.49 
6.6972 -0.33406 670.33 
6.6958 -0.24404 670.19 
6.6945 -0.15122 670.06 
6.6935 -0.059442 669.96 
6.6922 0.032607 669.83 
6.6909 0.12308 669.7 
6.6899 0.21276 669.6 
6.6887 0.30354 669.48 
6.6879 0.39546 669.4 
6.6867 0.48599 669.27 
6.6854 0.57745 669.15 
6.6848 0.66918 669.09 
6.6837 0.76112 668.98 
6.6826 0.85179 668.87 
6.6815 0.94273 668.76 
6.6805 1.0341 668.65 
6.6794 1.124 668.55 
6.6786 1.2146 668.47 
6.6777 1.3055 668.38 
6.6765 1.3964 668.26 
6.6756 1.4878 668.17 
6.6747 1.579 668.08 
6.6742 1.6705 668.02 
6.6735 1.7625 667.95 
6.6726 1.8526 667.86 
6.6714 1.9438 667.75 
6.6708 2.0347 667.69 
6.67 2.1259 667.6 
6.6693 2.2148 667.54 
6.6684 2.3046 667.45 
6.6677 2.395 667.38 
6.667 2.4857 667.31 
6.6663 2.5786 667.23 
6.6657 2.6694 667.17 
6.6648 2.7602 667.09 
6.6643 2.8517 667.04 
6.6636 2.9413 666.96 
6.6628 3.0337 666.88 
6.6623 3.1232 666.83 
6.6616 3.2136 666.76 
6.6609 3.304 666.7 
6.6601 3.3946 666.61 
6.6595 3.4859 666.55 
6.6591 3.5778 666.51 
6.6584 3.6671 666.44 
6.6577 3.7566 666.37 
6.6573 3.847 666.34 
6.6569 3.9382 666.29 
6.6562 4.0285 666.23 
6.6555 4.1184 666.15 
6.6549 4.2091 666.1 
6.6547 4.3003 666.07 
6.6542 4.3912 666.02 
6.6535 4.4826 665.95 
6.6529 4.5726 665.89 
6.6524 4.6632 665.84 
6.6519 4.7524 665.79 
6.6514 4.8436 665.74 
6.6508 4.9339 665.68 
6.6505 5.0245 665.65 
6.6502 5.1154 665.62 
6.6498 5.2059 665.58 
6.6492 5.2955 665.52 
6.6489 5.3857 665.49 
6.6484 5.476 665.43 
6.6479 5.5668 665.39 
6.6473 5.6572 665.33 
6.647 5.7473 665.3 
6.6468 5.837 665.28 
6.6464 5.9278 665.24 
6.6459 6.0185 665.19 
6.6456 6.1095 665.16 
6.6452 6.199 665.12 
6.6448 6.2891 665.08 
6.6446 6.3798 665.05 
6.6443 6.4703 665.03 
6.6439 6.5609 664.99 
6.6435 6.6525 664.95 
6.643 6.742 664.9 
6.6428 6.8322 664.87 
6.6424 6.9221 664.84 
6.642 7.0124 664.8 
6.6418 7.104 664.78 
6.6416 7.1946 664.76 
6.6413 7.2843 664.73 
6.6409 7.3742 664.69 
6.6405 7.4644 664.65 
6.6403 7.5547 664.63 
6.6402 7.6455 664.61 
6.6398 7.7354 664.58 
6.6397 7.8259 664.56 
6.6394 7.9168 664.54 
6.6393 8.0072 664.53 
6.639 8.0969 664.5 
6.6387 8.1873 664.46 
6.6384 8.2786 664.44 
6.6383 8.3697 664.43 
6.6383 8.4605 664.43 
6.6379 8.5512 664.39 
6.6376 8.6403 664.36 
6.6374 8.7291 664.34 
6.6374 8.8201 664.33 
6.6372 8.9104 664.32 
6.637 9.0007 664.3 
6.6369 9.0911 664.29 
6.6368 9.1822 664.27 
6.6365 9.2726 664.24 
6.6363 9.3623 664.22 
6.6361 9.4532 664.21 
6.6361 9.543 664.21 
6.6359 9.6339 664.18 
6.6357 9.724 664.16 
6.6356 9.8151 664.15 
6.6356 9.9054 664.15 
6.6356 9.9956 664.15 
6.6352 10.086 664.12 
6.6351 10.177 664.11 
6.6351 10.267 664.1 
6.6352 10.358 664.11 
6.635 10.448 664.09 
6.6348 10.538 664.07 
6.6349 10.629 664.08 
6.6348 10.719 664.07 
6.6346 10.809 664.05 
6.6346 10.9 664.05 
6.6345 10.992 664.04 
6.6345 11.083 664.04 
6.6343 11.173 664.02 
6.6343 11.262 664.02 
6.6343 11.353 664.02 
6.6343 11.442 664.02 
6.6343 11.533 664.02 
6.6343 11.625 664.02 
6.6343 11.715 664.02 
6.6343 11.806 664.02 
6.6343 11.897 664.02 
6.6343 11.988 664.02 
6.6343 12.078 664.02 
6.6344 12.169 664.03 
6.6344 12.259 664.03 
6.6342 12.349 664.01 
6.6343 12.44 664.02 
6.6343 12.531 664.02 
6.6344 12.621 664.03 
6.6345 12.711 664.04 
6.6347 12.804 664.06 
6.6347 12.893 664.06 
6.6346 12.984 664.05 
6.6348 13.074 664.07 
6.6352 13.167 664.11 
6.6353 13.258 664.12 
6.6354 13.348 664.13 
6.6354 13.438 664.13 
6.6354 13.529 664.13 
6.6357 13.621 664.16 
6.6358 13.712 664.17 
6.6359 13.803 664.18 
6.636 13.894 664.18 
6.6363 13.985 664.21 
6.6364 14.075 664.23 
6.6364 14.165 664.23 
6.6367 14.256 664.25 
6.6369 14.348 664.27 
6.6371 14.438 664.3 
6.6371 14.529 664.3 
6.6372 14.62 664.31 
6.6374 14.711 664.33 
6.6375 14.803 664.34 
6.6377 14.893 664.35 
6.6378 14.984 664.37 
6.6381 15.075 664.4 
6.6384 15.166 664.43 
6.6385 15.258 664.44 
6.6387 15.349 664.46 
6.6391 15.441 664.49 
6.6392 15.532 664.51 
6.6394 15.624 664.53 
6.6396 15.714 664.54 
6.64 15.805 664.58 
6.6403 15.897 664.62 
6.6407 15.987 664.66 
6.6409 16.079 664.68 
6.6412 16.169 664.7 
6.6415 16.261 664.74 
6.6417 16.353 664.76 
6.6422 16.446 664.8 
6.6422 16.536 664.8 
6.6426 16.627 664.84 
6.6428 16.719 664.86 
6.6432 16.81 664.91 
6.6437 16.902 664.95 
6.6441 16.993 664.99 
6.6444 17.084 665.02 
6.6446 17.175 665.04 
6.6449 17.267 665.08 
6.6454 17.36 665.13 
6.6458 17.452 665.17 
6.6462 17.544 665.21 
6.6465 17.636 665.23 
6.6468 17.726 665.27 
6.6472 17.818 665.3 
6.6475 17.91 665.33 
6.6479 18.002 665.37 
6.6484 18.094 665.43 
6.649 18.187 665.49 
6.6495 18.28 665.53 
6.65 18.37 665.58 
6.6503 18.462 665.61 
6.6508 18.554 665.67 
6.6512 18.647 665.71 
6.6518 18.74 665.76 
6.6524 18.831 665.83 
6.6529 18.924 665.87 
6.6533 19.016 665.91 
6.6538 19.108 665.96 
6.6545 19.201 666.03 
6.6551 19.293 666.09 
6.6553 19.384 666.12 
6.6557 19.476 666.16 
6.6563 19.569 666.22 
6.657 19.662 666.28 
6.6577 19.755 666.35 
6.6585 19.848 666.43 
6.6591 19.941 666.49 
6.6596 20.034 666.54 
6.6603 20.127 666.61 
6.6609 20.22 666.67 
6.6617 20.314 666.75 
6.6623 20.406 666.81 
6.6629 20.498 666.87 
6.6636 20.592 666.95 
6.6643 20.685 667.02 
6.6651 20.778 667.1 
6.6657 20.87 667.15 
6.6661 20.963 667.19 
6.667 21.056 667.28 
6.6681 21.152 667.4 
6.6689 21.245 667.47 
6.6695 21.339 667.53 
6.6703 21.432 667.61 
6.6711 21.525 667.69 
6.672 21.619 667.79 
6.6726 21.712 667.84 
6.6733 21.806 667.91 
6.6743 21.9 668.02 
6.6754 21.995 668.12 
6.6762 22.089 668.2 
6.677 22.183 668.28 
6.6781 22.278 668.39 
6.6792 22.373 668.5 
6.6801 22.467 668.59 
6.6811 22.562 668.68 
6.682 22.656 668.77 
6.6832 22.751 668.9 
6.6844 22.845 669.02 
6.6853 22.941 669.11 
6.6865 23.035 669.23 
6.6875 23.129 669.34 
6.6888 23.226 669.46 
6.6901 23.323 669.59 
6.6911 23.417 669.69 
6.6923 23.512 669.81 
6.6934 23.608 669.92 
6.6947 23.703 670.05 
6.6962 23.8 670.21 
6.6977 23.896 670.35 
6.699 23.992 670.48 
6.7004 24.09 670.62 
6.7021 24.188 670.79 
6.7035 24.284 670.93 
6.7049 24.381 671.07 
6.7066 24.478 671.25 
6.7083 24.575 671.41 
6.7102 24.672 671.61 
6.712 24.77 671.79 
6.7135 24.868 671.94 
6.7158 24.97 672.16 
6.7178 25.07 672.36 
6.7197 25.168 672.55 
6.7215 25.266 672.74 
6.7243 25.369 673.01 
6.7267 25.468 673.26 
6.7291 25.569 673.49 
6.7312 25.67 673.71 
6.7342 25.774 674.01 
6.7372 25.875 674.31 
6.7416 25.986 674.75 
6.746 26.092 675.19 
6.8459 -2.6436 675.99 
6.8402 -2.5488 675.42 
6.8358 -2.4543 674.99 
6.8324 -2.3595 674.65 
6.8298 -2.2691 674.4 
6.8269 -2.1769 674.11 
6.8248 -2.0838 673.9 
6.8219 -1.9907 673.62 
6.8192 -1.8993 673.35 
6.8172 -1.8044 673.15 
6.8153 -1.714 672.97 
6.8129 -1.6214 672.73 
6.8106 -1.5298 672.5 
6.8089 -1.4361 672.34 
6.8067 -1.345 672.12 
6.805 -1.251 671.95 
6.8037 -1.1606 671.82 
6.802 -1.0704 671.65 
6.8004 -0.97806 671.5 
6.7988 -0.88612 671.34 
6.7976 -0.79321 671.22 
6.7959 -0.70083 671.05 
6.7942 -0.60979 670.88 
6.7928 -0.51776 670.74 
6.7914 -0.42688 670.6 
6.7899 -0.33465 670.45 
6.7885 -0.24311 670.31 
6.7869 -0.15192 670.15 
6.7862 -0.060458 670.09 
6.7846 0.0313 669.94 
6.7836 0.1216 669.83 
6.7824 0.2129 669.72 
6.7814 0.30436 669.62 
6.7803 0.39418 669.51 
6.7791 0.48595 669.38 
6.7781 0.57775 669.29 
6.7771 0.66872 669.19 
6.776 0.75993 669.08 
6.7749 0.85092 668.98 
6.774 0.94317 668.89 
6.7729 1.0324 668.77 
6.772 1.1241 668.69 
6.7708 1.2154 668.57 
6.7701 1.3074 668.5 
6.7689 1.3979 668.38 
6.7679 1.4877 668.28 
6.7671 1.5791 668.2 
6.7661 1.6699 668.11 
6.7655 1.763 668.04 
6.7645 1.8537 667.95 
6.7634 1.9456 667.83 
6.7626 2.0351 667.76 
6.762 2.1254 667.69 
6.7613 2.2157 667.62 
6.7602 2.3056 667.52 
6.7597 2.3959 667.48 
6.759 2.4871 667.4 
6.7584 2.5797 667.34 
6.7575 2.6696 667.25 
6.7567 2.7613 667.18 
6.7562 2.8514 667.12 
6.7557 2.9432 667.07 
6.7548 3.0329 666.98 
6.754 3.1235 666.9 
6.7534 3.2139 666.85 
6.7528 3.304 666.78 
6.7521 3.3957 666.72 
6.7517 3.4865 666.67 
6.751 3.5771 666.61 
6.7503 3.6688 666.54 
6.7497 3.7581 666.48 
6.7491 3.8481 666.42 
6.7486 3.9391 666.37 
6.7478 4.0286 666.3 
6.7473 4.1182 666.25 
6.7466 4.2092 666.18 
6.7463 4.3001 666.15 
6.7459 4.3919 666.1 
6.7454 4.4833 666.05 
6.7447 4.5735 665.99 
6.7442 4.6634 665.94 
6.7436 4.7532 665.88 
6.7428 4.8435 665.8 
6.7423 4.9342 665.75 
6.7421 5.0252 665.73 
6.7416 5.1158 665.68 
6.7411 5.2058 665.63 
6.7408 5.2957 665.6 
6.7405 5.3862 665.57 
6.7401 5.4771 665.53 
6.7395 5.5672 665.48 
6.739 5.6581 665.42 
6.7386 5.7475 665.39 
6.7384 5.8383 665.36 
6.7379 5.929 665.31 
6.7373 6.0195 665.26 
6.7372 6.1099 665.24 
6.7366 6.1995 665.19 
6.7364 6.2905 665.16 
6.7359 6.3816 665.12 
6.7359 6.4719 665.11 
6.7354 6.5623 665.06 
6.735 6.6527 665.03 
6.7346 6.7428 664.98 
6.7344 6.8317 664.96 
6.7339 6.9223 664.92 
6.7335 7.0132 664.88 
6.7332 7.1036 664.85 
6.7329 7.1938 664.82 
6.7328 7.285 664.81 
6.7324 7.375 664.77 
6.7321 7.4659 664.74 
6.7318 7.556 664.71 
6.7316 7.646 664.69 
6.7313 7.7363 664.66 
6.7312 7.8272 664.65 
6.7308 7.9175 664.61 
6.7307 8.0081 664.6 
6.7304 8.0977 664.57 
6.7302 8.189 664.55 
6.7298 8.2789 664.51 
6.7297 8.3708 664.5 
6.7294 8.4607 664.47 
6.7292 8.5513 664.45 
6.729 8.6417 664.43 
6.7288 8.7311 664.41 
6.7288 8.8204 664.41 
6.7285 8.9109 664.39 
6.7285 9.0022 664.38 
6.7282 9.0926 664.35 
6.7281 9.1831 664.34 
6.7277 9.2733 664.31 
6.7275 9.3636 664.28 
6.7275 9.4537 664.28 
6.7274 9.544 664.28 
6.7273 9.6344 664.26 
6.727 9.725 664.24 
6.727 9.8162 664.23 
6.727 9.9065 664.23 
6.7269 9.9973 664.23 
6.7267 10.087 664.21 
6.7265 10.179 664.18 
6.7265 10.269 664.18 
6.7266 10.36 664.19 
6.7263 10.45 664.16 
6.7263 10.54 664.16 
6.7261 10.631 664.14 
6.7261 10.72 664.14 
6.7259 10.81 664.12 
6.7258 10.9 664.11 
6.7259 10.993 664.12 
6.726 11.084 664.13 
6.7258 11.174 664.11 
6.7257 11.264 664.1 
6.7257 11.354 664.1 
6.7257 11.445 664.11 
6.7256 11.535 664.09 
6.7256 11.626 664.09 
6.7258 11.717 664.11 
6.7256 11.807 664.1 
6.7256 11.897 664.09 
6.7255 11.988 664.08 
6.7257 12.079 664.1 
6.7256 12.17 664.09 
6.7256 12.26 664.09 
6.7255 12.35 664.08 
6.7256 12.441 664.09 
6.7258 12.533 664.11 
6.7258 12.623 664.11 
6.7259 12.713 664.12 
6.7261 12.804 664.13 
6.7262 12.896 664.15 
6.726 12.986 664.13 
6.7262 13.077 664.15 
6.7266 13.168 664.18 
6.7268 13.259 664.21 
6.7267 13.349 664.2 
6.7267 13.44 664.19 
6.7268 13.532 664.21 
6.7271 13.623 664.23 
6.7272 13.713 664.25 
6.7273 13.804 664.25 
6.7274 13.895 664.26 
6.7276 13.985 664.28 
6.7277 14.076 664.29 
6.7277 14.167 664.3 
6.7277 14.257 664.29 
6.7282 14.349 664.34 
6.7283 14.439 664.35 
6.7284 14.529 664.36 
6.7286 14.622 664.39 
6.7289 14.713 664.42 
6.729 14.804 664.43 
6.729 14.894 664.43 
6.7293 14.986 664.45 
6.7294 15.076 664.47 
6.7296 15.168 664.49 
6.7299 15.259 664.51 
6.7302 15.351 664.54 
6.7305 15.442 664.57 
6.7308 15.533 664.6 
6.7309 15.625 664.6 
6.731 15.716 664.62 
6.7314 15.807 664.66 
6.7317 15.897 664.69 
6.7322 15.989 664.73 
6.7323 16.08 664.74 
6.7326 16.172 664.78 
6.7329 16.263 664.8 
6.7333 16.355 664.85 
6.7335 16.447 664.86 
6.7339 16.539 664.91 
6.7341 16.63 664.92 
6.7343 16.72 664.94 
6.7346 16.811 664.97 
6.735 16.902 665.02 
6.7355 16.995 665.06 
6.7359 17.087 665.1 
6.7361 17.179 665.12 
6.7364 17.27 665.15 
6.7368 17.362 665.19 
6.7372 17.454 665.23 
6.7376 17.546 665.26 
6.7381 17.637 665.32 
6.7385 17.728 665.36 
6.7388 17.82 665.38 
6.7392 17.912 665.43 
6.7396 18.005 665.47 
6.74 18.097 665.5 
6.7405 18.189 665.56 
6.7411 18.282 665.62 
6.7415 18.373 665.65 
6.742 18.464 665.71 
6.7425 18.556 665.75 
6.7431 18.649 665.81 
6.7434 18.741 665.85 
6.7441 18.834 665.91 
6.7444 18.925 665.94 
6.7449 19.017 665.99 
6.7455 19.11 666.05 
6.7461 19.202 666.1 
6.7465 19.294 666.15 
6.7471 19.386 666.21 
6.7476 19.477 666.26 
6.7484 19.572 666.33 
6.749 19.665 666.4 
6.7496 19.758 666.45 
6.7502 19.851 666.51 
6.7509 19.944 666.58 
6.7515 20.037 666.64 
6.7521 20.129 666.7 
6.753 20.223 666.78 
6.7536 20.317 666.84 
6.7542 20.409 666.9 
6.7549 20.502 666.97 
6.7558 20.595 667.06 
6.7565 20.69 667.13 
6.7569 20.781 667.17 
6.7575 20.873 667.23 
6.758 20.965 667.29 
6.7591 21.061 667.39 
6.7602 21.156 667.5 
6.7609 21.248 667.56 
6.7616 21.343 667.63 
6.7625 21.436 667.72 
6.7632 21.529 667.79 
6.7641 21.622 667.88 
6.7649 21.716 667.96 
6.7658 21.81 668.05 
6.7667 21.904 668.14 
6.7678 21.999 668.25 
6.7685 22.093 668.32 
6.7694 22.187 668.4 
6.7704 22.281 668.5 
6.7714 22.375 668.6 
6.7722 22.469 668.68 
6.7733 22.564 668.78 
6.7742 22.659 668.88 
6.7756 22.754 669.01 
6.7767 22.848 669.13 
6.7777 22.944 669.23 
6.779 23.04 669.35 
6.7802 23.135 669.47 
6.7814 23.231 669.59 
6.7828 23.327 669.72 
6.784 23.421 669.84 
6.7852 23.516 669.96 
6.7861 23.611 670.06 
6.7873 23.707 670.17 
6.7889 23.804 670.33 
6.7908 23.901 670.52 
6.7921 23.997 670.64 
6.7935 24.096 670.78 
6.795 24.191 670.93 
6.7964 24.288 671.07 
6.7979 24.384 671.22 
6.7995 24.481 671.38 
6.8011 24.579 671.53 
6.8031 24.677 671.73 
6.8051 24.776 671.93 
6.8071 24.875 672.13 
6.809 24.976 672.31 
6.8112 25.076 672.53 
6.8136 25.177 672.77 
6.8156 25.274 672.96 
6.8181 25.374 673.21 
6.8207 25.475 673.47 
6.8232 25.576 673.72 
6.8259 25.68 673.99 
6.8289 25.783 674.28 
6.8326 25.889 674.65 
6.8372 25.997 675.1 
6.9368 -2.5495 675.86 
6.9316 -2.4532 675.35 
6.9273 -2.3613 674.94 
6.9241 -2.2694 674.62 
6.9217 -2.1772 674.39 
6.9186 -2.0859 674.08 
6.916 -1.9906 673.84 
6.9134 -1.8987 673.58 
6.9109 -1.8054 673.34 
6.9091 -1.7135 673.16 
6.9066 -1.6224 672.91 
6.9042 -1.5293 672.68 
6.9024 -1.4375 672.51 
6.9006 -1.3454 672.33 
6.8989 -1.2525 672.17 
6.8969 -1.162 671.97 
6.8953 -1.0707 671.82 
6.8938 -0.97833 671.67 
6.8919 -0.88573 671.48 
6.8906 -0.79336 671.36 
6.8889 -0.70189 671.19 
6.8872 -0.61033 671.03 
6.8859 -0.51898 670.9 
6.8845 -0.42804 670.76 
6.8829 -0.33561 670.61 
6.8813 -0.2438 670.45 
6.8798 -0.15301 670.3 
6.8786 -0.061084 670.19 
6.8774 0.030402 670.07 
6.8764 0.12305 669.97 
6.8753 0.21296 669.86 
6.874 0.30499 669.74 
6.8729 0.39576 669.63 
6.8716 0.48648 669.5 
6.8704 0.57666 669.39 
6.8694 0.6684 669.29 
6.8684 0.76002 669.19 
6.8671 0.85195 669.07 
6.8661 0.94282 668.96 
6.8651 1.0332 668.87 
6.8641 1.1243 668.77 
6.8631 1.2168 668.67 
6.8624 1.3079 668.6 
6.8612 1.3994 668.49 
6.8602 1.489 668.39 
6.8593 1.5795 668.3 
6.8586 1.6714 668.23 
6.8576 1.7626 668.14 
6.8567 1.8533 668.05 
6.8559 1.9444 667.98 
6.8551 2.0348 667.89 
6.8542 2.1251 667.81 
6.8533 2.2162 667.72 
6.8525 2.3057 667.64 
6.8519 2.397 667.59 
6.8513 2.4883 667.53 
6.8506 2.5801 667.46 
6.8496 2.6706 667.36 
6.8488 2.7609 667.28 
6.848 2.8509 667.2 
6.8475 2.9423 667.15 
6.8467 3.0323 667.08 
6.8458 3.1235 666.99 
6.8454 3.2137 666.95 
6.8446 3.3059 666.87 
6.8441 3.396 666.83 
6.8434 3.4875 666.75 
6.8428 3.5779 666.7 
6.842 3.6687 666.61 
6.8415 3.7591 666.56 
6.8409 3.8497 666.51 
6.8402 3.9394 666.44 
6.8394 4.0284 666.36 
6.8388 4.1188 666.31 
6.8383 4.2096 666.26 
6.838 4.3001 666.23 
6.8375 4.3919 666.18 
6.8369 4.483 666.12 
6.8365 4.5726 666.08 
6.836 4.6635 666.03 
6.8354 4.754 665.97 
6.8349 4.8447 665.92 
6.8342 4.9352 665.85 
6.8335 5.0251 665.79 
6.8331 5.1156 665.75 
6.8327 5.2067 665.71 
6.8322 5.2969 665.66 
6.8318 5.3866 665.62 
6.8316 5.4778 665.6 
6.8313 5.5684 665.57 
6.8308 5.6595 665.52 
6.8305 5.7494 665.5 
6.8299 5.8388 665.44 
6.8293 5.9306 665.38 
6.8288 6.0204 665.33 
6.8287 6.1109 665.31 
6.8282 6.2008 665.27 
6.8278 6.2908 665.23 
6.8274 6.3821 665.19 
6.8272 6.4734 665.17 
6.8268 6.5635 665.14 
6.8266 6.654 665.11 
6.826 6.7434 665.06 
6.8258 6.833 665.04 
6.8255 6.9226 665.01 
6.8253 7.0134 664.99 
6.825 7.105 664.96 
6.8244 7.1956 664.9 
6.8242 7.2859 664.88 
6.8238 7.3766 664.84 
6.8236 7.4669 664.82 
6.8233 7.5567 664.79 
6.8232 7.646 664.78 
6.8228 7.7371 664.74 
6.8223 7.828 664.7 
6.8222 7.9189 664.68 
6.8222 8.0091 664.68 
6.8219 8.099 664.66 
6.8216 8.1901 664.62 
6.8213 8.2804 664.59 
6.8211 8.3717 664.58 
6.8209 8.4613 664.56 
6.8206 8.5521 664.53 
6.8204 8.642 664.51 
6.8203 8.7315 664.49 
6.8201 8.8218 664.48 
6.8198 8.9114 664.45 
6.8196 9.0024 664.43 
6.8195 9.0931 664.42 
6.8195 9.1847 664.42 
6.8192 9.2742 664.39 
6.8191 9.3649 664.37 
6.8189 9.4546 664.36 
6.8188 9.5453 664.35 
6.8186 9.6355 664.33 
6.8186 9.7258 664.33 
6.8184 9.8167 664.31 
6.8184 9.9074 664.31 
6.8184 9.9981 664.31 
6.818 10.089 664.27 
6.8179 10.18 664.26 
6.8178 10.271 664.25 
6.8177 10.36 664.24 
6.8176 10.451 664.23 
6.8175 10.541 664.22 
6.8174 10.631 664.21 
6.8173 10.721 664.2 
6.8173 10.811 664.2 
6.8172 10.901 664.19 
6.8172 10.993 664.19 
6.8172 11.085 664.19 
6.8172 11.175 664.19 
6.8171 11.265 664.18 
6.817 11.355 664.18 
6.8171 11.446 664.18 
6.8171 11.537 664.18 
6.817 11.628 664.17 
6.8171 11.718 664.18 
6.8171 11.808 664.18 
6.817 11.898 664.17 
6.8172 11.988 664.19 
6.8172 12.08 664.19 
6.817 12.171 664.17 
6.8169 12.261 664.16 
6.8169 12.352 664.16 
6.8172 12.443 664.19 
6.8174 12.535 664.21 
6.8173 12.625 664.2 
6.8172 12.715 664.19 
6.8175 12.806 664.22 
6.8177 12.897 664.23 
6.8176 12.988 664.23 
6.8177 13.079 664.24 
6.818 13.17 664.27 
6.818 13.261 664.27 
6.8179 13.351 664.26 
6.8181 13.443 664.27 
6.8183 13.533 664.3 
6.8186 13.624 664.32 
6.8186 13.715 664.33 
6.8186 13.805 664.33 
6.8187 13.896 664.33 
6.819 13.988 664.36 
6.8191 14.078 664.37 
6.8191 14.168 664.37 
6.8192 14.259 664.38 
6.8194 14.349 664.4 
6.8197 14.44 664.43 
6.8198 14.531 664.44 
6.8199 14.623 664.45 
6.8202 14.714 664.48 
6.8204 14.806 664.5 
6.8205 14.897 664.51 
6.8206 14.988 664.51 
6.8209 15.078 664.55 
6.8211 15.17 664.57 
6.8213 15.261 664.59 
6.8217 15.353 664.62 
6.8218 15.443 664.64 
6.8221 15.535 664.67 
6.8222 15.626 664.67 
6.8226 15.717 664.71 
6.8229 15.809 664.74 
6.8233 15.9 664.78 
6.8236 15.992 664.81 
6.8239 16.082 664.84 
6.8241 16.173 664.86 
6.8243 16.264 664.87 
6.8246 16.356 664.91 
6.825 16.449 664.94 
6.8252 16.54 664.96 
6.8254 16.631 664.98 
6.8256 16.721 665.01 
6.8261 16.813 665.05 
6.8268 16.905 665.12 
6.8273 16.997 665.17 
6.8274 17.09 665.18 
6.8275 17.181 665.19 
6.8279 17.272 665.22 
6.8283 17.363 665.27 
6.8288 17.455 665.32 
6.8291 17.547 665.35 
6.8295 17.639 665.38 
6.8299 17.73 665.42 
6.8303 17.822 665.46 
6.8307 17.915 665.5 
6.8313 18.007 665.56 
6.8319 18.099 665.61 
6.8323 18.191 665.65 
6.8328 18.283 665.7 
6.8331 18.374 665.73 
6.8336 18.466 665.78 
6.8342 18.558 665.84 
6.8348 18.652 665.9 
6.8352 18.743 665.94 
6.8355 18.835 665.97 
6.836 18.927 666.01 
6.8367 19.02 666.08 
6.8373 19.113 666.14 
6.8379 19.205 666.2 
6.8385 19.298 666.26 
6.8389 19.389 666.29 
6.8395 19.481 666.35 
6.8403 19.576 666.44 
6.8409 19.668 666.49 
6.8416 19.762 666.56 
6.8423 19.854 666.63 
6.8428 19.946 666.68 
6.8436 20.04 666.76 
6.8441 20.132 666.8 
6.8448 20.226 666.87 
6.8454 20.319 666.93 
6.8462 20.412 667.01 
6.847 20.506 667.09 
6.8477 20.598 667.15 
6.8485 20.691 667.23 
6.8491 20.784 667.29 
6.8496 20.875 667.34 
6.8503 20.969 667.4 
6.851 21.063 667.47 
6.8521 21.158 667.58 
6.8528 21.25 667.65 
6.8538 21.345 667.74 
6.8547 21.44 667.84 
6.8555 21.532 667.91 
6.8564 21.626 668 
6.8572 21.719 668.08 
6.8581 21.813 668.16 
6.8588 21.908 668.23 
6.8598 22.002 668.33 
6.8607 22.097 668.41 
6.8616 22.191 668.51 
6.8628 22.285 668.62 
6.8637 22.378 668.71 
6.8648 22.473 668.82 
6.8658 22.568 668.91 
6.8667 22.662 669 
6.8679 22.756 669.12 
6.8691 22.852 669.23 
6.8702 22.948 669.34 
6.8714 23.044 669.46 
6.8728 23.14 669.59 
6.8741 23.236 669.72 
6.8754 23.331 669.84 
6.8768 23.427 669.98 
6.878 23.521 670.1 
6.8788 23.615 670.19 
6.88 23.711 670.3 
6.8816 23.808 670.46 
6.8834 23.906 670.63 
6.885 24.005 670.79 
6.8864 24.1 670.92 
6.8879 24.197 671.06 
6.8896 24.294 671.23 
6.8912 24.391 671.39 
6.8926 24.487 671.53 
6.8944 24.586 671.7 
6.8963 24.684 671.88 
6.8983 24.783 672.08 
6.9007 24.883 672.31 
6.9028 24.983 672.51 
6.9051 25.083 672.74 
6.9074 25.184 672.97 
6.9098 25.283 673.2 
6.9125 25.386 673.46 
6.9155 25.487 673.75 
6.9177 25.587 673.97 
6.9204 25.689 674.24 
6.9239 25.794 674.57 
6.9278 25.901 674.96 
7.0295 -2.4542 675.91 
7.0241 -2.3634 675.39 
7.0195 -2.2685 674.95 
7.0165 -2.1766 674.66 
7.0136 -2.0846 674.38 
7.0108 -1.9923 674.11 
7.0079 -1.8992 673.83 
7.0056 -1.8054 673.61 
7.0032 -1.7149 673.38 
7.0005 -1.622 673.13 
6.998 -1.5283 672.88 
6.9961 -1.438 672.7 
6.9942 -1.3465 672.51 
6.9922 -1.2531 672.32 
6.9906 -1.1623 672.17 
6.9884 -1.0716 671.96 
6.9871 -0.97856 671.83 
6.9853 -0.88396 671.66 
6.9835 -0.79168 671.49 
6.9818 -0.70111 671.32 
6.9805 -0.60941 671.19 
6.979 -0.51789 671.05 
6.9775 -0.42714 670.91 
6.9759 -0.33552 670.75 
6.9744 -0.24552 670.61 
6.9729 -0.15257 670.47 
6.9715 -0.062147 670.33 
6.9701 0.030372 670.2 
6.969 0.12301 670.09 
6.968 0.21261 669.99 
6.9667 0.30505 669.87 
6.9652 0.3946 669.72 
6.9642 0.48605 669.63 
6.963 0.57742 669.51 
6.9619 0.66932 669.41 
6.9608 0.76046 669.3 
6.9595 0.85153 669.17 
6.9585 0.94313 669.08 
6.9574 1.0346 668.97 
6.9565 1.1255 668.89 
6.9555 1.217 668.79 
6.9545 1.3088 668.7 
6.9536 1.3993 668.61 
6.9525 1.4898 668.5 
6.9517 1.5796 668.42 
6.9508 1.6712 668.33 
6.9499 1.7621 668.25 
6.9491 1.8546 668.18 
6.9482 1.9446 668.08 
6.9475 2.0359 668.02 
6.9466 2.1262 667.93 
6.9456 2.2158 667.84 
6.9447 2.3064 667.76 
6.9442 2.3982 667.7 
6.9434 2.489 667.63 
6.9426 2.5795 667.55 
6.9417 2.6705 667.46 
6.9406 2.7612 667.36 
6.94 2.8515 667.3 
6.9392 2.9414 667.22 
6.9385 3.0328 667.16 
6.9379 3.124 667.09 
6.9373 3.2151 667.04 
6.9364 3.3067 666.95 
6.9358 3.3969 666.89 
6.9353 3.4865 666.85 
6.9347 3.5782 666.79 
6.9339 3.6696 666.71 
6.9333 3.7592 666.65 
6.9326 3.8501 666.59 
6.9321 3.9409 666.53 
6.9316 4.0309 666.48 
6.9308 4.1205 666.41 
6.9304 4.2105 666.37 
6.9299 4.3018 666.33 
6.9293 4.3924 666.27 
6.9286 4.4828 666.2 
6.9281 4.5737 666.15 
6.9277 4.6644 666.11 
6.9272 4.7546 666.06 
6.9267 4.846 666.02 
6.926 4.9362 665.95 
6.9255 5.026 665.9 
6.9248 5.117 665.84 
6.9245 5.2074 665.8 
6.924 5.2979 665.76 
6.9236 5.3883 665.72 
6.9232 5.4778 665.68 
6.9229 5.5689 665.65 
6.9226 5.6593 665.62 
6.922 5.7493 665.57 
6.9215 5.8407 665.52 
6.9209 5.9306 665.46 
6.9204 6.0213 665.41 
6.9202 6.1111 665.4 
6.92 6.2012 665.37 
6.9194 6.2919 665.32 
6.919 6.3823 665.28 
6.9187 6.4737 665.25 
6.9184 6.5637 665.21 
6.9182 6.6537 665.19 
6.9177 6.7446 665.15 
6.9174 6.8342 665.12 
6.917 6.924 665.08 
6.9169 7.0149 665.08 
6.9162 7.1052 665.01 
6.916 7.1963 664.99 
6.9158 7.2867 664.97 
6.9154 7.3782 664.92 
6.915 7.4673 664.89 
6.9148 7.5578 664.87 
6.9146 7.6476 664.85 
6.9141 7.7382 664.81 
6.9137 7.8291 664.77 
6.9137 7.9192 664.77 
6.9135 8.0089 664.74 
6.9132 8.0997 664.72 
6.913 8.1905 664.7 
6.913 8.2818 664.7 
6.9127 8.3719 664.67 
6.9126 8.4618 664.65 
6.9122 8.5526 664.61 
6.9119 8.6423 664.59 
6.9117 8.7318 664.57 
6.9114 8.8217 664.55 
6.9112 8.913 664.52 
6.9113 9.0032 664.53 
6.9111 9.0948 664.51 
6.911 9.1853 664.5 
6.9107 9.2762 664.48 
6.9103 9.3662 664.44 
6.9102 9.4564 664.43 
6.9102 9.5467 664.42 
6.9102 9.6373 664.42 
6.91 9.7268 664.4 
6.9098 9.8173 664.38 
6.9097 9.9078 664.38 
6.9096 9.9988 664.37 
6.9093 10.09 664.34 
6.9091 10.181 664.31 
6.909 10.271 664.3 
6.9091 10.362 664.31 
6.909 10.453 664.3 
6.9089 10.542 664.3 
6.9088 10.632 664.29 
6.9087 10.723 664.28 
6.9087 10.813 664.28 
6.9087 10.904 664.27 
6.9087 10.995 664.28 
6.9086 11.086 664.27 
6.9085 11.176 664.25 
6.9083 11.265 664.24 
6.9084 11.355 664.25 
6.9085 11.447 664.26 
6.9085 11.538 664.26 
6.9085 11.629 664.26 
6.9087 11.719 664.27 
6.9085 11.81 664.26 
6.9085 11.899 664.26 
6.9084 11.99 664.25 
6.9086 12.081 664.27 
6.9085 12.172 664.26 
6.9083 12.262 664.24 
6.9085 12.353 664.26 
6.9086 12.444 664.27 
6.9088 12.536 664.28 
6.9088 12.627 664.28 
6.9088 12.717 664.29 
6.9089 12.808 664.3 
6.9091 12.9 664.32 
6.909 12.989 664.31 
6.9089 13.079 664.3 
6.9093 13.171 664.33 
6.9092 13.261 664.33 
6.9094 13.353 664.35 
6.9095 13.444 664.35 
6.9097 13.535 664.37 
6.91 13.626 664.4 
6.9101 13.717 664.41 
6.91 13.808 664.4 
6.91 13.898 664.4 
6.9102 13.989 664.42 
6.9103 14.079 664.43 
6.9107 14.17 664.46 
6.9108 14.261 664.48 
6.9109 14.351 664.49 
6.911 14.442 664.5 
6.9111 14.533 664.51 
6.9111 14.624 664.51 
6.9115 14.716 664.54 
6.9117 14.807 664.56 
6.9119 14.899 664.58 
6.9121 14.99 664.6 
6.9123 15.08 664.62 
6.9126 15.172 664.65 
6.9127 15.263 664.66 
6.9131 15.354 664.69 
6.9133 15.446 664.72 
6.9136 15.537 664.74 
6.9139 15.629 664.77 
6.9142 15.72 664.8 
6.9145 15.81 664.83 
6.9149 15.902 664.87 
6.9152 15.993 664.89 
6.9154 16.084 664.92 
6.9156 16.176 664.94 
6.9159 16.267 664.97 
6.9161 16.358 664.98 
6.9163 16.45 665 
6.9167 16.543 665.04 
6.9171 16.634 665.08 
6.9173 16.724 665.09 
6.9177 16.817 665.14 
6.9183 16.908 665.2 
6.9188 17 665.24 
6.9191 17.092 665.27 
6.9191 17.183 665.27 
6.9197 17.274 665.33 
6.92 17.366 665.36 
6.9204 17.457 665.4 
6.9207 17.55 665.43 
6.9211 17.641 665.46 
6.9216 17.732 665.51 
6.922 17.825 665.54 
6.9225 17.917 665.6 
6.923 18.009 665.65 
6.9236 18.101 665.71 
6.9241 18.193 665.75 
6.9246 18.285 665.8 
6.9249 18.377 665.83 
6.9253 18.468 665.87 
6.9257 18.56 665.91 
6.9264 18.653 665.98 
6.9269 18.745 666.02 
6.9274 18.838 666.06 
6.9279 18.93 666.11 
6.9285 19.023 666.17 
6.9291 19.115 666.23 
6.9296 19.208 666.27 
6.9302 19.3 666.33 
6.9307 19.392 666.39 
6.9314 19.485 666.45 
6.9321 19.578 666.52 
6.933 19.671 666.61 
6.9336 19.764 666.66 
6.9342 19.857 666.72 
6.9348 19.949 666.78 
6.9355 20.043 666.84 
6.936 20.136 666.89 
6.9367 20.228 666.96 
6.9375 20.321 667.03 
6.938 20.414 667.08 
